ply
format ascii 1.0
element vertex 1260
property float x
property float y
property float z
property uchar red
property uchar green
property uchar blue
end_header
32.0871 -56.224 35.4001  255 255 255
-44.6425 -55.7458 32.5997  255 255 255
-28.0412 -55.7195 33.6086  255 255 255
-43.1747 -55.7269 33.241  255 255 255
56.5163 -57.3686 38.6686  255 255 255
-38.8417 -55.9983 33.5982  255 255 255
-29.9902 -56.3074 34.1254  255 255 255
25.8151 -57.7975 36.3582  255 255 255
56.5371 -58.3276 38.9944  255 255 255
-33.7538 -56.7596 34.6814  255 255 255
25.5056 -58.1498 36.7903  255 255 255
-41.5533 -56.9699 34.4884  255 255 255
53.4477 -58.8169 39.0762  255 255 255
-27.1911 -57.1886 35.6629  255 255 255
25.8588 -58.3036 38.3376  255 255 255
34.2727 -59.172 39.1203  255 255 255
-45.768 -57.8219 35.8989  255 255 255
-32.9635 -58.0178 36.2813  255 255 255
-18.8108 -58.3162 37.315  255 255 255
35.7761 -60.0197 39.3267  255 255 255
56.9802 -60.3201 42.1411  255 255 255
-33.9776 -58.8282 38.1271  255 255 255
63.3216 -60.8879 43.3126  255 255 255
-28.2711 -59.2276 37.9301  255 255 255
-58.0461 -59.3063 37.3643  255 255 255
-24.0642 -59.4554 38.2265  255 255 255
18.8918 -60.4642 39.8352  255 255 255
-27.1114 -59.6432 38.5767  255 255 255
-5.40659 -60.2313 39.3361  255 255 255
-22.9232 -59.993 38.9593  255 255 255
50.8252 -61.739 43.0779  255 255 255
-9.79638 -60.413 39.7413  255 255 255
18.248 -61.2036 40.7522  255 255 255
-34.3301 -60.2549 38.825  255 255 255
16.5221 -60.93 41.3229  255 255 255
-16.8506 -60.3757 39.5256  255 255 255
-9.86576 -60.6047 39.9308  255 255 255
-2.01326 -60.7988 40.35  255 255 255
-38.674 -60.1422 39.6135  255 255 255
-0.763379 -60.9697 40.2348  255 255 255
-22.3429 -60.4322 39.8411  255 255 255
-5.27535 -60.6627 40.6226  255 255 255
15.234 -61.4487 40.8966  255 255 255
6.67501 -61.2381 40.7547  255 255 255
-13.1714 -60.7582 40.257  255 255 255
45.2497 -62.0988 44.1146  255 255 255
38.5032 -62.0654 43.5656  255 255 255
-11.7059 -61.1453 40.7895  255 255 255
-11.6972 -61.1631 40.7511  255 255 255
2.00895 -61.3694 42.1452  255 255 255
25.077 -62.0411 43.2005  255 255 255
22.8945 -61.9778 43.1269  255 255 255
-12.5744 -61.3739 41.0922  255 255 255
-3.65379 -61.6511 41.2423  255 255 255
6.7202 -61.7236 42.115  255 255 255
6.85573 -61.9809 41.6373  255 255 255
6.85574 -61.9809 41.6373  255 255 255
-17.4752 -61.3743 40.9518  255 255 255
44.3113 -62.8699 44.3319  255 255 255
-2.51407 -61.9888 41.1506  255 255 255
53.8129 -62.8883 45.5371  255 255 255
-17.7319 -61.576 41.2156  255 255 255
-4.83769 -62.042 41.5557  255 255 255
-17.5815 -61.5795 41.6496  255 255 255
-17.5675 -61.7016 41.3836  255 255 255
19.2571 -62.8527 44.1558  255 255 255
-9.69996 -62.269 43.2143  255 255 255
21.0842 -63.4087 43.989  255 255 255
-10.0002 -62.7316 42.793  255 255 255
45.7177 -64.1473 46.0911  255 255 255
45.7178 -64.1474 46.0908  255 255 255
-87.3128 62.4725 -24.1621  255 255 255
35.9996 84.1156 -90.0939  255 255 255
-80.373 63.8513 -29.0195  255 255 255
-81.0173 63.2957 -28.5021  255 255 255
62.4958 88.5892 -103.076  255 255 255
-57.0863 67.219 -41.8119  255 255 255
-57.0948 67.2441 -41.8787  255 255 255
-36.8929 70.545 -52.7148  255 255 255
79.4927 91.5372 -111.354  255 255 255
79.561 91.5762 -111.435  255 255 255
-59.342 66.7069 -40.3745  255 255 255
-74.3523 64.2545 -32.5201  255 255 255
-76.0534 63.9199 -31.6771  255 255 255
-75.9336 63.691 -30.8047  255 255 255
4.74644 77.6136 -74.7375  255 255 255
4.74644 77.6136 -74.7375  255 255 255
39.2081 83.9043 -92.5242  255 255 255
-54.4862 67.2573 -43.682  255 255 255
-45.232 68.6147 -48.1327  255 255 255
-85.4466 61.7551 -25.5052  255 255 255
-37.363 69.693 -52.9651  255 255 255
-37.3338 69.6336 -52.9813  255 255 255
41.5161 83.5953 -93.7568  255 255 255
-70.8145 64.0386 -35.1351  255 255 255
42.3304 83.3867 -94.5367  255 255 255
-78.5359 62.5589 -30.9045  255 255 255
67.2332 87.6372 -106.508  255 255 255
74.7787 88.9635 -110.335  255 255 255
78.8831 89.6579 -112.2  255 255 255
63.5235 86.6488 -104.916  255 255 255
-43.1856 67.8253 -50.648  255 255 255
61.3283 58.8603 -15.1047  255 255 255
-31.77 69.556 -56.7234  255 255 255
40.6422 82.0896 -93.7946  255 255 255
37.9858 81.7384 -93.2963  255 255 255
-71.8039 62.9605 -35.1167  255 255 255
76.6418 88.1205 -111.615  255 255 255
-72.2163 62.8133 -35.1621  255 255 255
13.2011 76.8332 -80.584  255 255 255
-24.6055 69.9412 -60.86  255 255 255
57.1169 60.8779 -25.0963  255 255 255
38.5658 80.8654 -94.1328  255 255 255
37.4913 80.5936 -93.9584  255 255 255
63.8919 56.053 -9.94266  255 255 255
40.5066 80.7164 -95.1507  255 255 255
33.1102 79.3863 -91.8723  255 255 255
38.2755 79.8665 -93.0826  255 255 255
61.1253 57.8598 -16.4552  255 255 255
76.752 86.8796 -113.418  255 255 255
-72.8706 61.6016 -35.2536  255 255 255
-71.4008 61.8545 -36.3112  255 255 255
41.2121 80.4342 -96.0708  255 255 255
-70.5538 61.9875 -36.9826  255 255 255
-2.99072 72.7375 -73.4224  255 255 255
49.7485 81.8663 -100.612  255 255 255
-70.1424 61.8775 -37.1673  255 255 255
51.2836 81.7063 -99.9792  255 255 255
51.8382 82.1118 -101.618  255 255 255
56.929 60.0968 -26.294  255 255 255
79.212 86.6318 -114.786  255 255 255
86.6671 87.6851 -117.748  255 255 255
-71.8305 61.0057 -35.1443  255 255 255
-91.6844 58.1612 -24.7663  255 255 255
-91.6844 58.1612 -24.7662  255 255 255
-2.6795 72.1609 -73.266  255 255 255
33.0267 78.3642 -91.9287  255 255 255
52.5946 81.7284 -102.224  255 255 255
85.7046 87.4788 -118.158  255 255 255
28.5522 77.5373 -90.2884  255 255 255
61.9817 56.7255 -16.0117  255 255 255
-142.519 82.9187 -108.383  255 255 255
-56.9122 63.3444 -44.8246  255 255 255
-56.8156 63.0905 -43.9991  255 255 255
56.6211 46.1238 19.4511  255 255 255
56.5832 46.0976 19.4806  255 255 255
60.3622 57.3257 -19.0656  255 255 255
0.421715 72.2082 -75.3835  255 255 255
0.418085 72.1834 -75.3784  255 255 255
59.1459 57.7805 -22.387  255 255 255
56.5143 46.305 16.6791  255 255 255
56.825 46.4618 16.2557  255 255 255
57.0017 45.8334 18.1111  255 255 255
-89.4016 57.4854 -26.6705  255 255 255
85.5035 85.1841 -119.224  255 255 255
83.4141 84.633 -118.196  255 255 255
19.6906 73.9162 -87.1454  255 255 255
57.5106 45.1494 18.0868  255 255 255
57.4702 45.1115 18.1711  255 255 255
19.1395 73.5095 -87.3727  255 255 255
41.9089 70.1732 -73.3933  255 255 255
-72.3144 58.848 -37.2896  255 255 255
85.354 84.0948 -120.016  255 255 255
-12.6718 67.8056 -70.7528  255 255 255
-72.4028 58.5427 -38.0621  255 255 255
64.3182 52.5563 -10.9094  255 255 255
-91.6369 55.4548 -26.3764  255 255 255
59.4179 42.2662 24.529  255 255 255
-85.7724 56.0216 -30.3124  255 255 255
81.4621 83.1281 -122.846  255 255 255
-53.0094 60.345 -49.6976  255 255 255
63.8226 78.5447 -111.58  255 255 255
70.7086 79.854 -115.563  255 255 255
-7.48729 66.5969 -75.3175  255 255 255
-7.46694 66.6534 -75.4227  255 255 255
-40.551 61.5569 -57.0881  255 255 255
-35.8982 62.0829 -59.7802  255 255 255
-35.9183 62.1198 -59.847  255 255 255
57.4875 43.0447 17.0502  255 255 255
-10.9475 65.42 -73.638  255 255 255
-10.9475 65.42 -73.6381  255 255 255
-54.5369 58.9964 -49.9176  255 255 255
-54.5369 58.9964 -49.9176  255 255 255
-82.8318 55.0357 -33.946  255 255 255
-82.0287 55.2226 -34.8933  255 255 255
57.2436 42.7821 16.2654  255 255 255
62.1464 76.5284 -111.83  255 255 255
62.1302 76.5225 -111.792  255 255 255
-82.3564 54.814 -34.3815  255 255 255
-125.642 68.2254 -82.6264  255 255 255
-5.10881 65.7096 -77.0547  255 255 255
60.1151 40.8862 21.8226  255 255 255
-117.746 63.6435 -69.8225  255 255 255
62.5683 50.8469 -17.6772  255 255 255
59.8041 74.6224 -111.698  255 255 255
-123.525 66.0375 -80.6647  255 255 255
59.23 40.647 19.4226  255 255 255
62.5295 38.2962 27.5378  255 255 255
-93.4549 51.4648 -28.7461  255 255 255
-13.9138 62.4208 -74.2895  255 255 255
-13.9138 62.4208 -74.2894  255 255 255
63.1372 37.7795 29.4235  255 255 255
59.8454 51.5684 -24.7614  255 255 255
59.5953 51.4956 -25.8961  255 255 255
-54.8588 56.2979 -51.5774  255 255 255
-43.7241 57.683 -58.0209  255 255 255
-36.5522 58.6408 -61.6852  255 255 255
-68.6511 54.2481 -44.0372  255 255 255
-61.6681 55.2467 -48.1976  255 255 255
58.2107 40.2497 16.7789  255 255 255
57.923 40.1051 16.5493  255 255 255
60.1168 38.8227 20.6927  255 255 255
62.678 37.5576 26.113  255 255 255
-15.5069 60.503 -74.5087  255 255 255
-15.5143 60.4718 -74.4549  255 255 255
-4.56507 61.7662 -79.9609  255 255 255
-4.56509 61.7661 -79.9607  255 255 255
-110.949 57.5199 -60.4029  255 255 255
-86.2643 50.8828 -34.4898  255 255 255
-53.1253 54.802 -53.8707  255 255 255
57.9126 50.2525 -30.3058  255 255 255
41.9429 67.4316 -106.446  255 255 255
56.7126 39.5753 12.4044  255 255 255
-14.9828 59.1968 -76.1224  255 255 255
59.7682 37.8376 18.7652  255 255 255
59.7682 37.8376 18.7652  255 255 255
63.5452 36.0308 27.3102  255 255 255
61.6835 47.1594 -21.2515  255 255 255
33.3012 65.61 -102.553  255 255 255
30.2985 64.8743 -101.263  255 255 255
-37.857 55.0834 -63.6464  255 255 255
65.9194 34.0047 33.6363  255 255 255
-6.70338 58.7802 -80.9996  255 255 255
66.5779 33.2977 35.0603  255 255 255
-4.51683 58.8132 -82.2942  255 255 255
66.4904 33.3894 34.3978  255 255 255
64.4325 68.1493 -119.317  255 255 255
64.6067 68.2827 -119.647  255 255 255
66.6766 32.9246 35.1159  255 255 255
66.7238 32.9494 35.0411  255 255 255
62.3727 45.8122 -21.9055  255 255 255
59.7089 36.5495 17.8774  255 255 255
66.7544 32.677 33.8964  255 255 255
35.1622 62.8289 -105.185  255 255 255
67.4945 31.9763 36.2702  255 255 255
-44.4137 51.5578 -61.7799  255 255 255
-28.4538 53.4686 -71.2185  255 255 255
57.2866 36.7234 11.2418  255 255 255
-72.7949 47.9015 -45.7689  255 255 255
57.0757 36.4487 10.8291  255 255 255
57.4282 36.2366 11.4516  255 255 255
62.6138 33.6784 23.73  255 255 255
67.1346 31.3004 33.7037  255 255 255
67.4232 31.1039 34.6818  255 255 255
62.6707 33.3272 23.4717  255 255 255
62.6707 33.3272 23.4717  255 255 255
-113.291 52.585 -69.6632  255 255 255
-52.2649 49.1888 -58.1468  255 255 255
60.0434 34.2531 17.4344  255 255 255
-26.5831 52.1314 -73.6549  255 255 255
29.3898 59.1894 -104.757  255 255 255
63.2054 32.5973 24.1372  255 255 255
-26.2988 51.6887 -74.0187  255 255 255
-38.3047 50.2312 -67.1591  255 255 255
60.0372 33.8875 17.1045  255 255 255
60.5409 33.5658 18.1084  255 255 255
-39.7985 49.7194 -66.7904  255 255 255
-64.1069 46.8109 -53.4364  255 255 255
-69.3624 46.0511 -50.1936  255 255 255
-69.3635 46.0731 -50.1924  255 255 255
-51.1098 47.9824 -60.6261  255 255 255
68.5062 29.3872 35.7677  255 255 255
57.8584 33.9686 11.3809  255 255 255
61.1018 32.3389 18.9893  255 255 255
58.6429 42.5091 -34.0632  255 255 255
59.8476 41.8409 -30.8658  255 255 255
61.7737 40.464 -25.9542  255 255 255
-62.1472 45.1602 -55.2519  255 255 255
65.4444 29.6731 27.9977  255 255 255
-146.217 57.6207 -114.051  255 255 255
62.4526 40.0896 -26.6437  255 255 255
62.4527 40.0896 -26.6439  255 255 255
-105.646 45.8235 -58.4407  255 255 255
57.374 41.4457 -38.0803  255 255 255
55.7903 33.0929 5.05145  255 255 255
-51.1822 44.9663 -62.5216  255 255 255
-51.1637 44.9693 -62.6833  255 255 255
-3.5905 50.0475 -90.1061  255 255 255
-55.7406 44.3445 -60.0615  255 255 255
56.5265 32.5551 6.49029  255 255 255
-70.2239 42.7439 -51.8431  255 255 255
-70.2163 42.7343 -51.8679  255 255 255
-69.3637 42.693 -51.5902  255 255 255
-51.9556 44.1876 -62.5382  255 255 255
61.8539 38.3123 -27.605  255 255 255
-88.8138 40.0514 -41.3256  255 255 255
55.9367 32.0852 4.30525  255 255 255
58.603 31.0072 11.0275  255 255 255
-87.6309 39.8037 -42.8564  255 255 255
-24.5374 45.8637 -79.5979  255 255 255
58.6984 30.4934 11.2207  255 255 255
-82.3021 40.2705 -46.2462  255 255 255
-87.5888 39.2165 -42.6452  255 255 255
-87.6301 39.2376 -42.7874  255 255 255
-83.1559 39.6871 -46.0906  255 255 255
-81.6173 39.0576 -46.9345  255 255 255
63.394 35.8175 -25.2753  255 255 255
68.2365 25.6872 32.8863  255 255 255
68.1593 25.6515 32.9501  255 255 255
57.7453 29.6531 7.94161  255 255 255
64.3811 34.9981 -22.8429  255 255 255
-32.2321 43.0094 -76.5261  255 255 255
-87.8182 37.9686 -43.9202  255 255 255
-26.8025 43.6523 -80.2537  255 255 255
60.6168 36.3834 -33.0112  255 255 255
63.942 34.9366 -24.0965  255 255 255
64.5709 34.5654 -22.7088  255 255 255
-69.8054 37.9785 -49.1778  255 255 255
-70.1193 37.5617 -48.5158  255 255 255
64.6031 34.0582 -22.8997  255 255 255
-40.7466 41.2984 -72.1762  255 255 255
-40.7601 41.3057 -72.2893  255 255 255
-140.55 47.2606 -100.953  255 255 255
-33.6598 41.699 -77.3576  255 255 255
-6.74404 44.1455 -92.6924  255 255 255
65.604 25.3121 26.1092  255 255 255
-7.51669 43.2569 -92.6261  255 255 255
-91.0969 35.651 -43.5343  255 255 255
60.5533 26.6866 13.7007  255 255 255
60.5668 26.6942 13.7114  255 255 255
60.5473 26.7024 13.718  255 255 255
-68.0111 37.2655 -57.3697  255 255 255
-52.4342 38.9106 -69.9573  255 255 255
-65.5792 37.0594 -59.2895  255 255 255
25.5406 42.1553 -91.7188  255 255 255
-71.6434 36.4843 -56.6093  255 255 255
-4.1479 41.5329 -91.3346  255 255 255
66.0082 24.2238 26.0055  255 255 255
61.2553 25.824 14.8026  255 255 255
64.4446 24.7596 21.8162  255 255 255
66.7818 23.718 27.608  255 255 255
66.7051 23.7026 27.6724  255 255 255
57.8522 26.6457 5.76896  255 255 255
57.903 26.6715 5.65562  255 255 255
66.0464 23.7142 25.6918  255 255 255
64.3813 24.2645 21.9089  255 255 255
57.6136 26.5561 5.40223  255 255 255
-32.2483 37.7317 -80.7818  255 255 255
-2.47054 38.958 -88.4029  255 255 255
-61.3131 35.4477 -63.4401  255 255 255
57.1593 26.0272 3.43375  255 255 255
61.5592 24.4481 14.8148  255 255 255
-84.365 33.5746 -49.878  255 255 255
67.6411 22.3795 28.9133  255 255 255
67.5952 22.3584 28.9427  255 255 255
60.2499 24.7453 11.1105  255 255 255
67.9223 22.1323 29.845  255 255 255
67.9223 22.1323 29.845  255 255 255
55.2796 26.0176 -0.622913  255 255 255
67.4395 22.1652 27.8464  255 255 255
-81.1466 33.8424 -57.2113  255 255 255
59.9202 24.4103 10.2025  255 255 255
-80.7493 33.805 -57.7254  255 255 255
-58.9771 34.4959 -66.0178  255 255 255
-48.4479 35.4564 -73.3584  255 255 255
-33.6266 36.3968 -81.0185  255 255 255
64.8648 22.515 22.0552  255 255 255
64.8471 22.5193 22.072  255 255 255
-81.2105 33.3798 -57.8175  255 255 255
55.8937 24.9441 0.21621  255 255 255
-86.4183 31.6678 -49.8541  255 255 255
-92.6928 31.0586 -46.1554  255 255 255
-70.8229 32.3903 -59.5851  255 255 255
69.0295 20.4462 31.5185  255 255 255
63.0807 22.2191 16.983  255 255 255
63.1064 22.2175 17.0075  255 255 255
-41.5766 33.8826 -77.9404  255 255 255
4.23546 34.5329 -82.5856  255 255 255
60.4601 22.9008 9.8952  255 255 255
58.2727 22.9701 4.97747  255 255 255
-38.9505 33.2433 -79.3812  255 255 255
-93.4877 28.5344 -46.4117  255 255 255
52.9697 32.1551 -78.5218  255 255 255
57.3308 28.2066 -48.2035  255 255 255
57.9166 21.7574 3.49168  255 255 255
60.7441 21.0528 9.80063  255 255 255
-67.0778 29.4483 -62.9874  255 255 255
-79.0548 29.4455 -61.7072  255 255 255
5.77986 30.6143 -77.1214  255 255 255
66.2973 19.1459 23.5606  255 255 255
66.2759 19.1921 23.5931  255 255 255
70.5519 17.8622 33.7909  255 255 255
67.2038 18.8355 23.8976  255 255 255
58.1085 26.7107 -46.7209  255 255 255
58.0921 26.8326 -46.7888  255 255 255
-87.5889 27.6722 -52.4852  255 255 255
-44.6343 29.7598 -76.8333  255 255 255
-86.6297 27.3802 -52.7638  255 255 255
66.9236 18.3766 24.4834  255 255 255
66.6378 18.305 24.146  255 255 255
-81.1027 27.9274 -62.7052  255 255 255
67.1933 17.9961 24.402  255 255 255
36.6184 28.7932 -76.3371  255 255 255
-72.1444 27.3713 -62.971  255 255 255
60.6737 24.9488 -40.7135  255 255 255
-92.2254 26.1115 -50.6933  255 255 255
61.1366 19.1098 10.0116  255 255 255
-88.2206 25.8756 -53.4442  255 255 255
56.5508 19.831 -1.4703  255 255 255
57.0829 19.7489 -1.42112  255 255 255
57.092 19.6902 -1.35913  255 255 255
61.5405 18.4455 10.3096  255 255 255
61.4053 18.4058 10.5992  255 255 255
56.8997 19.3205 -1.64478  255 255 255
66.7287 16.8708 22.8352  255 255 255
4.46281 25.3394 -70.2781  255 255 255
62.2982 17.5041 11.8666  255 255 255
-38.1605 25.2269 -70.1821  255 255 255
68.6967 15.7013 27.105  255 255 255
-35.6081 24.8281 -69.8218  255 255 255
66.636 16.0105 22.347  255 255 255
70.2824 14.8496 31.9765  255 255 255
70.5043 14.7929 32.5823  255 255 255
61.722 16.6479 9.23345  255 255 255
70.5644 14.5285 32.3914  255 255 255
59.3474 17.0726 4.08923  255 255 255
-15.3855 23.0739 -67.6446  255 255 255
66.5702 15.2832 21.8272  255 255 255
38.8366 22.7866 -67.0069  255 255 255
-92.7157 21.9411 -51.8896  255 255 255
66.9118 14.7758 21.0187  255 255 255
-11.7798 22.2715 -66.4445  255 255 255
-89.798 21.6788 -52.6936  255 255 255
-17.7026 22.1792 -66.7163  255 255 255
-1.98832 22.0168 -65.0983  255 255 255
58.2687 16.1132 2.90824  255 255 255
-44.7992 21.8967 -65.6593  255 255 255
63.827 19.3636 -35.6345  255 255 255
60.177 15.6614 4.72412  255 255 255
44.2337 21.119 -65.1924  255 255 255
60.1908 15.1754 4.91849  255 255 255
-15.7907 20.1554 -63.7841  255 255 255
71.7025 12.5526 33.3687  255 255 255
-74.6085 20.5375 -65.3942  255 255 255
-20.4059 18.921 -61.9117  255 255 255
-16.7212 18.912 -62.6137  255 255 255
-10.2665 18.8545 -62.1529  255 255 255
-12.2559 18.7619 -62.3273  255 255 255
68.674 12.4381 25.3064  255 255 255
63.007 17.0522 -36.9175  255 255 255
62.0241 13.5343 8.30294  255 255 255
65.3103 12.958 16.7993  255 255 255
65.4146 12.9674 16.7145  255 255 255
64.5757 12.8096 14.7011  255 255 255
64.5834 12.8096 14.6996  255 255 255
-64.1111 18.5243 -62.4167  255 255 255
-85.2117 18.7134 -61.3034  255 255 255
56.6098 13.4699 -5.73711  255 255 255
-10.7583 16.2579 -58.9007  255 255 255
59.1721 12.538 0.0457208  255 255 255
60.1617 12.4187 2.13243  255 255 255
-13.9724 16.0727 -59.071  255 255 255
-60.5893 15.4209 -58.2507  255 255 255
60.4397 11.4082 1.96707  255 255 255
-16.5368 14.6982 -56.4154  255 255 255
63.5947 10.4478 10.0094  255 255 255
-34.4492 13.9256 -57.675  255 255 255
71.4128 8.88835 29.9322  255 255 255
66.1968 9.42004 17.1372  255 255 255
-12.4483 12.8848 -54.4933  255 255 255
66.4306 8.96072 17.2498  255 255 255
-13.5482 12.2126 -52.7598  255 255 255
-6.29001 7.76698 23.4721  255 255 255
-2.8251 7.46147 22.1893  255 255 255
-77.6269 11.8361 -53.962  255 255 255
60.4378 8.62717 0.792575  255 255 255
60.8595 8.33117 1.61671  255 255 255
58.9415 8.41746 -4.14678  255 255 255
-12.0709 6.74889 21.3111  255 255 255
59.695 7.84393 -1.74009  255 255 255
64.46 7.17872 9.99575  255 255 255
64.4882 7.18226 9.92244  255 255 255
59.9197 7.39809 -1.77908  255 255 255
66.9977 6.69435 16.469  255 255 255
-58.1629 9.41545 -50.7976  255 255 255
70.9046 6.15558 27.0346  255 255 255
61.8416 6.94866 3.42575  255 255 255
56.3412 7.39323 -11.3911  255 255 255
61.3801 6.95523 2.2123  255 255 255
-24.3235 8.38984 -49.633  255 255 255
65.8911 6.00552 13.255  255 255 255
65.9912 5.61814 12.8699  255 255 255
65.3612 5.50658 11.222  255 255 255
72.7457 4.87763 30.8578  255 255 255
65.5558 5.43783 11.7329  255 255 255
65.5341 5.42381 11.7682  255 255 255
66.4817 5.33028 14.5837  255 255 255
66.0566 5.12109 12.993  255 255 255
66.0566 5.12109 12.993  255 255 255
68.9017 4.85706 19.12  255 255 255
68.9271 4.82562 19.1192  255 255 255
70.9392 4.64596 25.8006  255 255 255
70.9392 4.64596 25.8006  255 255 255
72.5475 4.45813 30.1453  255 255 255
70.9612 4.27114 25.4986  255 255 255
70.7558 4.27327 25.7819  255 255 255
-19.6203 4.7013 -0.36448  255 255 255
62.7018 4.42125 3.76738  255 255 255
65.9705 4.1075 12.1177  255 255 255
70.7351 3.75397 25.3633  255 255 255
-41.2484 5.17145 -44.6077  255 255 255
71.2945 3.55801 26.4209  255 255 255
63.9895 3.89242 7.81499  255 255 255
-20.8095 3.80334 0.653622  255 255 255
70.7664 3.44281 25.0879  255 255 255
64.0219 3.72909 6.92937  255 255 255
64.0219 3.72909 6.92937  255 255 255
-1.00009 2.96996 29.3405  255 255 255
67.9316 3.52743 17.1548  255 255 255
66.9185 3.47845 14.2465  255 255 255
71.7294 3.20211 26.8969  255 255 255
70.0883 3.23137 23.4868  255 255 255
70.0275 3.19651 22.7477  255 255 255
71.0075 3.06299 25.1221  255 255 255
70.9969 3.07976 25.1225  255 255 255
68.2316 3.1569 17.6187  255 255 255
-116.001 5.30515 -44.9602  255 255 255
67.5381 2.9964 15.5536  255 255 255
67.5381 2.9964 15.5536  255 255 255
55.7331 3.39818 -17.0977  255 255 255
71.1255 2.64334 25.2947  255 255 255
68.6397 2.66083 18.3588  255 255 255
-22.4342 2.80445 2.16519  255 255 255
64.5935 2.70248 7.49534  255 255 255
70.7231 2.37515 24.2701  255 255 255
71.308 2.13227 25.088  255 255 255
60.7219 2.33045 -2.93076  255 255 255
70.7568 1.94749 23.9688  255 255 255
67.9735 2.01766 15.6991  255 255 255
67.8675 1.94804 15.8716  255 255 255
69.604 1.63976 16.499  255 255 255
67.4622 1.74164 14.3154  255 255 255
67.5056 1.73038 14.2904  255 255 255
-47.2741 2.25136 -41.2671  255 255 255
69.7321 1.5343 20.3148  255 255 255
70.4008 1.42315 23.3231  255 255 255
68.1752 1.35418 15.9645  255 255 255
-25.6407 1.37611 4.35966  255 255 255
70.1987 1.16663 22.6743  255 255 255
62.7414 1.14622 1.30802  255 255 255
70.1929 0.945759 21.0943  255 255 255
70.1033 0.929059 21.2007  255 255 255
69.9538 0.832819 22.9147  255 255 255
68.9827 0.811144 17.5821  255 255 255
68.9787 0.810796 17.5883  255 255 255
71.4423 0.751858 24.7192  255 255 255
71.4423 0.751858 24.7192  255 255 255
-77.5887 1.36455 -38.1807  255 255 255
-25.4332 0.571662 5.20829  255 255 255
62.9878 0.46329 1.6859  255 255 255
51.7844 0.349962 -37.8534  255 255 255
63.2579 0.283978 2.12102  255 255 255
73.5468 0.172912 30.1838  255 255 255
68.602 0.0552785 16.2215  255 255 255
-50.5954 0.317825 -38.7731  255 255 255
63.1563 -0.0336591 1.80915  255 255 255
-13.7004 -0.0818005 30.7255  255 255 255
60.1483 -0.158276 -6.65482  255 255 255
71.3525 -0.17025 24.126  255 255 255
70.8007 -0.331715 22.2544  255 255 255
63.5357 -0.684815 2.10765  255 255 255
71.5227 -0.660699 23.8726  255 255 255
71.4792 -0.654025 23.9292  255 255 255
-7.84258 -0.733368 34.4531  255 255 255
73.3387 -0.75058 29.0399  255 255 255
63.8173 -0.966485 2.77438  255 255 255
69.6812 -1.07923 18.3837  255 255 255
63.6197 -1.47196 1.77643  255 255 255
70.9536 -1.49463 21.4547  255 255 255
58.8439 -2.08214 -12.3386  255 255 255
-22.4136 -1.57355 13.8585  255 255 255
70.905 -1.71244 21.1044  255 255 255
-73.3311 -1.80113 -37.2385  255 255 255
56.3938 -2.86883 -18.4304  255 255 255
73.0816 -2.106 27.1584  255 255 255
-22.6743 -2.14099 14.5798  255 255 255
67.9149 -2.55829 12.3  255 255 255
68.8949 -2.49182 15.5166  255 255 255
70.8544 -2.78974 20.1639  255 255 255
70.75 -2.79991 20.2787  255 255 255
5.08502 -2.53655 35.7954  255 255 255
57.2479 -4.01949 -17.5933  255 255 255
64.1512 -3.72439 1.74062  255 255 255
68.1434 -3.63091 11.951  255 255 255
73.0767 -3.66767 26.4207  255 255 255
66.456 -4.20683 7.36555  255 255 255
67.6186 -4.13384 10.5163  255 255 255
74.5562 -3.79165 30.2857  255 255 255
-28.0375 -3.83985 11.2883  255 255 255
0.741151 -3.41723 37.4451  255 255 255
69.343 -4.17602 15.0252  255 255 255
69.3445 -4.17588 15.0294  255 255 255
-20.503 -3.76092 26.6785  255 255 255
71.0853 -4.20752 19.2471  255 255 255
74.7317 -4.2858 29.7692  255 255 255
-5.84204 -3.86797 37.2934  255 255 255
67.6302 -4.98968 9.28316  255 255 255
-4.17547 -3.91815 37.4024  255 255 255
0.391799 -4.12096 37.9206  255 255 255
65.7362 -5.53743 4.29511  255 255 255
-50.1857 -6.04537 -31.5737  255 255 255
-77.1147 -5.86903 -32.7261  255 255 255
71.4301 -5.17812 20.5454  255 255 255
-17.5257 -4.61795 31.0765  255 255 255
-3.94745 -4.59933 37.9927  255 255 255
-3.96777 -4.59309 38.1271  255 255 255
-10.7819 -4.87903 36.1538  255 255 255
9.05973 -5.07952 35.4528  255 255 255
55.8559 -7.50334 -23.6309  255 255 255
-61.3067 -7.36599 -29.0732  255 255 255
70.3286 -6.47291 16.1564  255 255 255
2.97582 -5.53656 38.1305  255 255 255
58.004 -8.11936 -18.306  255 255 255
1.42866 -5.64296 38.1876  255 255 255
56.2742 -9.06019 -24.7577  255 255 255
65.8363 -8.00365 2.60477  255 255 255
68.1428 -7.68026 11.0095  255 255 255
27.5353 -7.35297 15.194  255 255 255
68.8982 -7.62639 12.8405  255 255 255
67.4663 -8.02083 7.02644  255 255 255
67.6221 -8.01401 7.59632  255 255 255
57.2789 -9.61301 -24.9362  255 255 255
56.6105 -9.57254 -23.2077  255 255 255
65.9987 -8.51825 2.72095  255 255 255
68.3382 -8.16562 9.82335  255 255 255
-31.7716 -7.25989 15.461  255 255 255
67.9108 -8.26314 8.12499  255 255 255
74.7835 -7.41194 27.7501  255 255 255
-16.571 -6.62246 33.0883  255 255 255
-76.0767 -9.0291 -27.668  255 255 255
67.5171 -8.74272 6.03181  255 255 255
68.0041 -8.79874 8.0462  255 255 255
68.2491 -8.71517 8.81769  255 255 255
73.1741 -8.23637 22.9546  255 255 255
75.3753 -8.05522 29.0011  255 255 255
67.7292 -9.18464 6.77624  255 255 255
68.6992 -9.06094 9.80232  255 255 255
57.1504 -10.7708 -23.6126  255 255 255
70.0151 -8.86739 13.3888  255 255 255
74.8357 -8.20032 27.7651  255 255 255
66.2085 -9.55899 2.42297  255 255 255
68.4599 -9.17969 8.9883  255 255 255
73.0101 -8.50321 22.7539  255 255 255
73.01 -8.50321 22.7539  255 255 255
69.5299 -9.49826 11.9217  255 255 255
70.9778 -9.3443 17.4378  255 255 255
-29.8747 -8.65454 17.26  255 255 255
66.1164 -10.3575 1.83176  255 255 255
66.1523 -10.3579 1.74403  255 255 255
68.1744 -10.0263 7.49641  255 255 255
75.3113 -9.00911 28.0805  255 255 255
60.4521 -11.4133 -13.823  255 255 255
-53.51 -11.1779 -23.8343  255 255 255
-11.1047 -7.94887 37.3074  255 255 255
69.3315 -10.2852 10.4178  255 255 255
-56.6638 -11.4107 -23.5685  255 255 255
68.9771 -10.4595 8.8094  255 255 255
-59.6304 -11.5557 -23.4437  255 255 255
69.6731 -10.456 11.5174  255 255 255
69.6703 -10.4527 11.5166  255 255 255
-57.2027 -11.5742 -23.5357  255 255 255
-5.81197 -8.21795 39.0717  255 255 255
72.2723 -10.0633 19.6953  255 255 255
65.2742 -11.681 -1.32439  255 255 255
-57.0183 -12.0261 -22.7989  255 255 255
-57.0116 -12.0101 -22.6381  255 255 255
58.9075 -12.9515 -20.3585  255 255 255
67.3753 -11.6841 3.61819  255 255 255
69.7476 -11.3359 11.7337  255 255 255
74.5704 -10.5253 25.3711  255 255 255
-22.4598 -9.60769 26.6217  255 255 255
67.6014 -12.0462 4.21044  255 255 255
-23.1049 -9.97651 24.9664  255 255 255
-52.723 -13.0137 -21.1584  255 255 255
-53.6585 -13.2437 -21.3368  255 255 255
-57.4777 -13.2592 -20.9842  255 255 255
74.9756 -11.1083 26.3685  255 255 255
75.06 -11.0765 26.3036  255 255 255
63.0352 -13.6422 -8.78224  255 255 255
74.9018 -11.1747 25.8294  255 255 255
73.2924 -11.6245 21.6223  255 255 255
-23.8613 -10.4445 25.5141  255 255 255
67.6685 -12.8577 4.025  255 255 255
67.535 -12.8868 4.21554  255 255 255
75.6995 -11.4081 27.5444  255 255 255
-0.391306 -9.89279 39.8762  255 255 255
61.2765 -14.6237 -14.0447  255 255 255
21.3045 -11.3665 26.0719  255 255 255
69.1934 -13.1843 8.0243  255 255 255
-69.8717 -14.1837 -20.2851  255 255 255
67.3487 -13.7705 3.0433  255 255 255
-6.31483 -10.3669 39.3909  255 255 255
68.1651 -14.0437 4.40594  255 255 255
-32.0778 -11.6914 21.4116  255 255 255
-60.8284 -14.826 -19.9209  255 255 255
-25.4906 -11.4703 26.8906  255 255 255
67.2962 -14.5207 2.49387  255 255 255
10.4384 -11.4396 36.8077  255 255 255
67.8697 -14.9273 2.88557  255 255 255
-60.4264 -15.5155 -18.3795  255 255 255
-20.8456 -11.8651 29.8407  255 255 255
-20.8235 -11.8942 29.6819  255 255 255
75.4093 -13.415 25.6493  255 255 255
-9.4201 -11.72 38.6569  255 255 255
65.0421 -16.6127 -7.19591  255 255 255
-24.0358 -12.5641 28.3902  255 255 255
6.59341 -12.2705 38.6658  255 255 255
69.2813 -15.952 6.22929  255 255 255
-5.45419 -12.0522 39.913  255 255 255
69.8542 -15.9454 7.73973  255 255 255
69.0088 -16.2492 5.69648  255 255 255
67.6909 -16.7308 1.18247  255 255 255
67.6807 -16.728 1.19655  255 255 255
70.4941 -16.0821 9.16626  255 255 255
75.9579 -14.7034 26.348  255 255 255
75.477 -14.8674 25.4967  255 255 255
75.7639 -14.964 25.7108  255 255 255
75.653 -14.9521 25.8632  255 255 255
66.9548 -17.6672 -0.904069  255 255 255
-21.946 -13.5828 29.9547  255 255 255
72.6682 -16.1361 15.522  255 255 255
72.6628 -16.1475 15.5374  255 255 255
-44.5161 -17.8092 -15.2395  255 255 255
-44.5373 -17.833 -15.469  255 255 255
-9.33463 -12.9377 38.9009  255 255 255
29.4316 -14.8963 24.8192  255 255 255
68.7807 -17.7711 3.90368  255 255 255
-72.7938 -18.2742 -16.6869  255 255 255
-63.1325 -18.2091 -15.2424  255 255 255
75.3168 -16.0139 23.6317  255 255 255
-3.26511 -13.371 40.2057  255 255 255
67.8986 -18.6345 -0.0565616  255 255 255
70.6211 -17.844 8.33379  255 255 255
72.4294 -17.3275 13.4462  255 255 255
-15.4235 -13.9863 35.4434  255 255 255
-71.3202 -18.7832 -14.797  255 255 255
-32.4524 -14.9401 25.683  255 255 255
-19.2389 -14.3662 31.9536  255 255 255
-58.7315 -19.6432 -13.2303  255 255 255
76.7166 -17.0097 26.3982  255 255 255
69.8655 -19.4014 5.09246  255 255 255
-31.4544 -15.6696 26.5182  255 255 255
-70.565 -19.7805 -13.2354  255 255 255
-58.3291 -20.2594 -12.4104  255 255 255
-66.7273 -20.2086 -13.0056  255 255 255
-14.9905 -15.2486 35.981  255 255 255
-18.601 -15.6212 32.6676  255 255 255
68.3707 -20.624 0.273809  255 255 255
69.6761 -20.2069 3.86857  255 255 255
-94.2698 -20.3375 -12.4038  255 255 255
-63.5728 -20.6501 -11.7942  255 255 255
-29.5975 -16.3655 27.6082  255 255 255
-24.0382 -16.0641 30.9924  255 255 255
72.6164 -19.6299 12.4129  255 255 255
72.5695 -19.6141 12.4621  255 255 255
12.4425 -15.9671 36.0047  255 255 255
73.8736 -19.2869 16.8695  255 255 255
-13.2374 -15.855 36.7946  255 255 255
74.2547 -19.2796 20.0527  255 255 255
-63.9709 -21.2812 -11.353  255 255 255
-6.2472 -15.7954 39.8433  255 255 255
76.9857 -18.8311 26.0435  255 255 255
-59.7024 -21.4805 -11.4239  255 255 255
-59.7024 -21.4805 -11.4239  255 255 255
22.8224 -17.6272 28.8655  255 255 255
69.2386 -21.6722 1.27514  255 255 255
74.2191 -20.5678 11.6955  255 255 255
12.3736 -16.8186 35.137  255 255 255
73.0364 -20.4725 12.8399  255 255 255
-65.0038 -21.6908 -11.1707  255 255 255
76.6284 -19.2251 24.6392  255 255 255
-5.7902 -16.113 39.9012  255 255 255
69.1599 -22.1816 1.51575  255 255 255
76.3483 -20.2085 23.3126  255 255 255
-33.1258 -18.8855 21.2023  255 255 255
16.5264 -17.9389 34.4597  255 255 255
77.4483 -20.1198 26.3646  255 255 255
-13.1107 -17.8494 36.7087  255 255 255
-62.9459 -23.5294 -8.20542  255 255 255
68.8495 -24.5112 -0.586999  255 255 255
70.0432 -24.1961 2.26994  255 255 255
-52.698 -23.8852 -7.8317  255 255 255
70.5286 -24.2326 3.35732  255 255 255
-5.45151 -18.0114 39.4614  255 255 255
-0.236899 -18.092 39.7817  255 255 255
5.45051 -18.5229 38.551  255 255 255
-63.1157 -24.1506 -7.67495  255 255 255
-68.7109 -24.3752 -7.26705  255 255 255
-69.4913 -24.5076 -7.63286  255 255 255
73.034 -23.7889 13.1819  255 255 255
-2.89699 -18.7446 39.6542  255 255 255
-59.6362 -24.7424 -6.55397  255 255 255
-9.79301 -18.9513 38.1907  255 255 255
24.4881 -20.5675 32.0976  255 255 255
70.227 -25.8009 1.56518  255 255 255
-65.0133 -25.1513 -6.26582  255 255 255
6.77079 -19.4681 38.1066  255 255 255
72.4475 -25.2146 7.36648  255 255 255
24.1559 -20.8584 32.6831  255 255 255
13.4164 -19.9834 37.2813  255 255 255
14.3367 -20.0342 37.2143  255 255 255
-2.86555 -19.7441 39.3768  255 255 255
11.124 -20.2375 37.7066  255 255 255
24.0913 -21.2127 32.9218  255 255 255
6.87949 -20.3909 38.372  255 255 255
74.7086 -25.7332 13.3741  255 255 255
-17.5366 -20.3407 37.3197  255 255 255
-16.4761 -20.7869 37.9379  255 255 255
-5.93268 -21.1884 39.4484  255 255 255
-48.1879 -27.6883 -2.85623  255 255 255
-25.0785 -21.9904 34.4348  255 255 255
-28.5734 -22.2275 34.545  255 255 255
6.94793 -22.147 40.0214  255 255 255
70.9066 -30.1946 0.56511  255 255 255
7.4063 -22.5469 40.6263  255 255 255
79.1735 -27.1674 24.4608  255 255 255
-5.39688 -22.6503 41.3771  255 255 255
-5.75961 -22.8533 41.545  255 255 255
77.0709 -28.8376 18.7058  255 255 255
-24.449 -23.5262 36.3923  255 255 255
-1.30972 -23.1313 41.5666  255 255 255
74.4675 -30.4861 10.3349  255 255 255
72.7818 -31.7567 4.54208  255 255 255
-20.968 -23.8844 37.2097  255 255 255
-27.5598 -24.8556 31.7288  255 255 255
20.3963 -24.9461 37.1709  255 255 255
76.1923 -30.4259 14.7731  255 255 255
-11.8643 -24.0306 39.4055  255 255 255
-16.4653 -24.2207 37.8668  255 255 255
73.0495 -32.0345 7.3671  255 255 255
78.4485 -28.8754 25.3705  255 255 255
78.4485 -28.8754 25.3704  255 255 255
77.2223 -30.5106 20.4575  255 255 255
74.5654 -32.2046 12.2769  255 255 255
76.6055 -31.7424 15.6683  255 255 255
76.6055 -31.7424 15.6683  255 255 255
-20.9244 -25.2182 39.0218  255 255 255
74.7095 -33.4972 8.08971  255 255 255
75.9833 -32.6534 12.6968  255 255 255
-12.3895 -25.4154 38.9117  255 255 255
74.7283 -33.433 8.71552  255 255 255
-6.55031 -25.4281 40.9045  255 255 255
3.35188 -25.6425 40.7865  255 255 255
75.1991 -33.9408 8.45298  255 255 255
74.9758 -33.9211 8.64296  255 255 255
75.2793 -33.9534 8.409  255 255 255
-10.0664 -25.8434 40.151  255 255 255
77.8963 -32.1089 20.9731  255 255 255
-23.4921 -26.8979 34.8106  255 255 255
3.6544 -26.2673 40.5893  255 255 255
-62.061 -32.8891 3.47427  255 255 255
14.6097 -26.8517 40.51  255 255 255
78.6466 -32.7276 20.0975  255 255 255
14.6334 -27.1061 40.8199  255 255 255
14.632 -27.1031 40.8189  255 255 255
-22.5825 -27.5269 35.454  255 255 255
75.9728 -34.4262 14.8933  255 255 255
-23.2941 -27.9753 34.2694  255 255 255
-19.7191 -27.0317 39.3532  255 255 255
13.3194 -27.4312 41.1612  255 255 255
16.9952 -27.7502 41.5178  255 255 255
-13.4232 -27.1771 41.3838  255 255 255
13.8208 -27.9383 40.9507  255 255 255
75.9931 -35.9904 12.567  255 255 255
75.9877 -36.441 10.4673  255 255 255
76.028 -36.438 10.5137  255 255 255
-9.68217 -27.4877 41.6596  255 255 255
76.8798 -36.5215 12.4818  255 255 255
79.7773 -35.0042 20.8046  255 255 255
-5.1668 -27.9785 42.4092  255 255 255
7.77971 -28.2445 42.5867  255 255 255
-5.94907 -27.9778 42.3972  255 255 255
7.04008 -28.3493 42.6437  255 255 255
80.1413 -35.4462 21.5109  255 255 255
8.49061 -28.6243 43.001  255 255 255
-13.3582 -28.2755 42.6299  255 255 255
-15.5087 -28.8851 40.8295  255 255 255
-8.156 -28.5675 43.1763  255 255 255
-10.0763 -28.5119 43.2594  255 255 255
-4.66846 -28.6547 43.3284  255 255 255
-4.67659 -28.6666 43.2757  255 255 255
-9.43329 -29.2861 43.9578  255 255 255
-60.4646 -36.935 9.03744  255 255 255
-0.656265 -29.884 44.3294  255 255 255
-3.909 -29.9212 44.3081  255 255 255
-0.0617621 -30.3995 43.9167  255 255 255
2.89006 -30.8319 43.4027  255 255 255
-16.4147 -31.688 38.1891  255 255 255
-14.3462 -31.639 39.2642  255 255 255
-1.10356 -31.2161 43.1926  255 255 255
79.8551 -40.015 18.1725  255 255 255
-3.41382 -31.1459 43.521  255 255 255
-24.305 -34.3588 29.5004  255 255 255
-27.7105 -35.6734 24.593  255 255 255
-14.8455 -32.4591 38.1819  255 255 255
68.7857 -42.1818 17.5685  255 255 255
-13.5688 -36.8922 35.5532  255 255 255
-47.6688 -42.4771 15.925  255 255 255
52.7719 -44.7468 18.9283  255 255 255
16.8633 -40.0894 31.1306  255 255 255
16.7285 -39.9764 31.4066  255 255 255
9.95912 -39.5787 34.6388  255 255 255
9.69395 -40.0775 34.3995  255 255 255
72.5024 -45.937 23.3691  255 255 255
41.8052 -46.5187 21.3863  255 255 255
39.8728 -46.6045 23.7684  255 255 255
0.129262 -41.3464 36.2597  255 255 255
0.770139 -41.9871 35.1739  255 255 255
2.36255 -42.6871 34.4707  255 255 255
19.3891 -44.6183 32.3623  255 255 255
2.76262 -43.5839 33.8479  255 255 255
63.7412 -48.8203 26.5637  255 255 255
-7.31681 -43.4393 35.8548  255 255 255
60.4793 -49.8442 27.6069  255 255 255
76.2951 -50.4715 29.6919  255 255 255
59.8236 -50.3281 28.3581  255 255 255
60.0715 -50.5091 28.0037  255 255 255
35.5016 -50.2893 26.4477  255 255 255
66.1589 -50.8718 29.951  255 255 255
68.0497 -50.9408 30.2181  255 255 255
61.2641 -51.0427 29.4614  255 255 255
56.3893 -50.95 29.6773  255 255 255
-54.7366 -49.908 24.8763  255 255 255
63.836 -51.8784 31.0933  255 255 255
-54.2706 -50.0688 25.9015  255 255 255
58.3921 -52.0067 30.8089  255 255 255
15.8124 -50.4502 31.04  255 255 255
-16.4405 -49.1723 32.2372  255 255 255
57.6834 -52.5943 31.5508  255 255 255
34.5165 -52.8981 29.8225  255 255 255
-13.6353 -50.4951 32.0202  255 255 255
55.2031 -53.3605 32.4738  255 255 255
-2.38432 -50.4143 35.1725  255 255 255
-0.350423 -51.6754 34.4022  255 255 255
-34.8132 -52.8801 30.0605  255 255 255
48.217 -54.4819 34.0804  255 255 255
46.9894 -55.1147 32.9967  255 255 255
70.0049 -55.2688 35.8503  255 255 255
47.9228 -55.4212 33.2522  255 255 255
61.4844 -55.275 35.48  255 255 255
26.0953 -55.3769 32.9402  255 255 255
26.0479 -55.3397 33.0476  255 255 255
-33.9168 -54.4599 32.0262  255 255 255
-42.0963 -54.537 31.6468  255 255 255
-34.6673 -54.8177 32.2985  255 255 255
-28.8334 -55.5555 33.3424  255 255 255
-26.9413 -55.7996 34.0678  255 255 255
38.698 -58.3638 37.128  255 255 255
54.0412 -58.4539 38.9936  255 255 255
62.5988 -58.6273 39.7515  255 255 255
52.9829 -58.7754 38.8632  255 255 255
33.714 -58.5604 37.5496  255 255 255
67.5389 -59.0026 41.0092  255 255 255
-26.0394 -57.2496 35.6864  255 255 255
55.9419 -59.0804 40.4817  255 255 255
55.9418 -59.0803 40.4819  255 255 255
-38.1054 -57.4637 35.7049  255 255 255
-20.9301 -57.7514 36.6927  255 255 255
-30.9963 -58.373 36.9841  255 255 255
35.3424 -60.4135 39.3166  255 255 255
57.0791 -60.4878 42.4517  255 255 255
-45.5601 -59.1351 36.9345  255 255 255
-25.3091 -59.1056 37.8182  255 255 255
-45.0589 -59.0751 37.4675  255 255 255
-41.1166 -59.0883 37.7318  255 255 255
-22.8456 -59.4016 37.9658  255 255 255
22.4292 -60.398 39.9429  255 255 255
-26.6043 -59.8513 38.6687  255 255 255
-11.2446 -60.308 39.5661  255 255 255
54.6232 -61.6153 43.9258  255 255 255
-10.8956 -60.4757 39.4837  255 255 255
39.7711 -61.9222 42.4682  255 255 255
-8.72179 -60.5429 40.0523  255 255 255
-2.9389 -60.5567 41.1336  255 255 255
-18.6304 -60.6078 39.9875  255 255 255
-1.26429 -61.0286 40.4431  255 255 255
3.90826 -61.0429 41.1852  255 255 255
44.3047 -62.0176 43.9418  255 255 255
-11.101 -60.6486 41.1811  255 255 255
-3.49751 -61.0526 41.1045  255 255 255
-17.1429 -60.6489 41.207  255 255 255
-17.1021 -60.9722 40.5239  255 255 255
6.7755 -61.6138 41.2752  255 255 255
6.79332 -61.6398 41.2082  255 255 255
51.3592 -62.2934 45.034  255 255 255
2.73613 -61.6105 41.1628  255 255 255
-8.18092 -61.4068 41.0458  255 255 255
1.33029 -61.4199 42.0442  255 255 255
0.445522 -61.917 41.1553  255 255 255
-12.0131 -61.5523 41.1498  255 255 255
55.3543 -62.9902 45.8615  255 255 255
-20.3918 -61.3129 41.782  255 255 255
-20.3918 -61.3129 41.7819  255 255 255
32.5368 -62.5862 44.2758  255 255 255
45.3622 -63.1626 45.597  255 255 255
33.9119 -63.0914 45.2203  255 255 255
53.8447 -63.5526 46.6291  255 255 255
53.8447 -63.5526 46.6291  255 255 255
-21.0228 -62.3524 42.1866  255 255 255
-21.0167 -62.4236 42.0443  255 255 255
-19.5008 -62.3747 42.2866  255 255 255
-19.5302 -62.0644 42.9041  255 255 255
47.7551 -63.9633 46.0477  255 255 255
24.3556 -63.243 45.0225  255 255 255
52.5785 -63.8816 46.9787  255 255 255
-7.36877 -62.7067 43.0864  255 255 255
-19.6387 -62.5868 42.5807  255 255 255
62.9944 89.239 -102.908  255 255 255
-84.126 63.149 -27.3245  255 255 255
6.95172 78.4371 -75.3927  255 255 255
6.97762 78.4677 -75.4813  255 255 255
74.0019 90.6889 -108.443  255 255 255
5.40133 77.9816 -74.5289  255 255 255
-72.1897 64.612 -33.4675  255 255 255
44.9303 84.8837 -95.681  255 255 255
1.51152 76.8188 -72.9133  255 255 255
-165.295 98.6184 -142.541  255 255 255
-6.37681 74.5858 -70.1067  255 255 255
60.9096 59.3637 -15.2123  255 255 255
65.9932 87.403 -106.518  255 255 255
-57.2819 65.9017 -43.6165  255 255 255
85.7753 90.6163 -115.746  255 255 255
20.272 78.3569 -83.9804  255 255 255
80.951 89.2703 -113.948  255 255 255
61.0867 58.6527 -16.0747  255 255 255
-13.2719 72.3098 -67.083  255 255 255
-13.2434 72.2828 -67.2401  255 255 255
-14.6666 71.8211 -66.117  255 255 255
76.0578 87.6753 -112.061  255 255 255
85.6776 89.2657 -116.456  255 255 255
-60.6137 64.2968 -42.068  255 255 255
62.3608 57.1457 -14.1633  255 255 255
74.953 86.2196 -112.465  255 255 255
37.8581 79.5357 -94.5176  255 255 255
73.5995 85.8569 -112.056  255 255 255
63.4167 56.0508 -11.2875  255 255 255
72.1001 85.2993 -111.578  255 255 255
-72.4628 60.5005 -33.9477  255 255 255
3.63576 73.1894 -76.7219  255 255 255
63.8553 55.267 -10.1838  255 255 255
31.9426 78.1134 -91.8756  255 255 255
57.9345 59.1117 -24.591  255 255 255
55.7418 47.3057 15.2859  255 255 255
38.5406 78.3826 -95.7989  255 255 255
72.0839 84.0538 -112.485  255 255 255
-98.3075 58.9549 -32.1876  255 255 255
55.9677 46.4472 15.4326  255 255 255
0.619475 71.0141 -76.6372  255 255 255
57.463 45.2849 17.315  255 255 255
-56.6746 61.6428 -46.6817  255 255 255
-37.397 63.8609 -55.9549  255 255 255
-37.2791 64.2388 -57.0969  255 255 255
-25.0932 66.0707 -63.6985  255 255 255
-26.4943 65.7105 -63.543  255 255 255
81.9006 83.0548 -121.293  255 255 255
-72.7087 58.2056 -38.359  255 255 255
59.7769 41.8497 23.3214  255 255 255
61.7911 53.0468 -17.7691  255 255 255
21.3346 71.3237 -90.1379  255 255 255
-11.4088 65.7686 -72.8009  255 255 255
-126.671 69.5085 -83.8203  255 255 255
-12.3609 65.065 -73.2272  255 255 255
-12.3497 65.1534 -73.3706  255 255 255
-22.9482 63.0185 -67.5896  255 255 255
-11.6168 64.7682 -73.7831  255 255 255
-59.8268 57.6773 -47.6429  255 255 255
63.6258 50.2182 -14.0626  255 255 255
81.3242 81.1496 -133.653  255 255 255
-0.525126 65.6306 -80.8344  255 255 255
60.2485 40.3764 21.9235  255 255 255
-18.683 62.3356 -70.3187  255 255 255
3.22869 65.7215 -82.8869  255 255 255
62.664 38.3716 27.9937  255 255 255
-0.0690441 64.6281 -81.6332  255 255 255
64.5275 48.7077 -12.9119  255 255 255
-16.8472 61.9601 -72.514  255 255 255
-16.8696 61.9242 -72.3516  255 255 255
57.856 40.8106 15.8659  255 255 255
63.0251 37.875 27.9894  255 255 255
60.347 39.3714 21.552  255 255 255
30.3717 68.3575 -97.8438  255 255 255
45.2989 70.3639 -105.265  255 255 255
63.7258 37.1669 29.327  255 255 255
-6.5561 62.5196 -79.1974  255 255 255
-14.9226 61.1478 -74.7534  255 255 255
65.4825 73.0686 -116.216  255 255 255
63.4124 37.3595 28.1031  255 255 255
64.0111 36.2364 32.4705  255 255 255
64.013 36.427 30.3731  255 255 255
64.2468 35.8755 32.8151  255 255 255
64.2468 35.8755 32.8151  255 255 255
62.5181 37.5508 25.2978  255 255 255
64.6462 35.6818 31.0869  255 255 255
62.6936 47.819 -20.1745  255 255 255
64.8109 35.4262 31.6639  255 255 255
-71.5962 52.0001 -44.3038  255 255 255
65.4068 34.4481 34.6418  255 255 255
57.055 69.3581 -114.191  255 255 255
63.0067 36.2163 25.925  255 255 255
65.663 33.9324 35.389  255 255 255
63.4634 35.89 26.9441  255 255 255
65.7053 34.3603 33.1344  255 255 255
56.7962 39.0994 12.0345  255 255 255
65.9283 33.8833 34.4422  255 255 255
-87.3125 49.1461 -35.9123  255 255 255
64.0341 34.8911 27.4654  255 255 255
59.5921 47.5048 -28.6419  255 255 255
65.9722 33.6475 32.4488  255 255 255
58.8407 47.6296 -29.6101  255 255 255
58.8478 47.6314 -29.585  255 255 255
58.8173 47.6123 -29.5836  255 255 255
-125.329 60.6113 -89.2751  255 255 255
67.2127 32.3282 36.5971  255 255 255
-6.62021 57.5895 -83.5713  255 255 255
-55.2569 51.2694 -55.2645  255 255 255
67.2572 32.1258 36.0813  255 255 255
67.5026 31.9922 36.9818  255 255 255
-56.8285 50.2618 -53.352  255 255 255
61.0025 45.4099 -26.4473  255 255 255
67.1449 31.9651 34.713  255 255 255
68.1524 31.0069 37.6785  255 255 255
57.637 46.3963 -34.6304  255 255 255
-7.33056 55.6641 -82.6848  255 255 255
60.0244 34.9079 17.9224  255 255 255
-68.1487 48.0024 -48.9646  255 255 255
59.2552 44.9353 -30.6748  255 255 255
59.2411 44.9376 -30.6578  255 255 255
-25.9649 52.6886 -73.1383  255 255 255
-31.6227 52.1001 -70.8941  255 255 255
59.834 44.4052 -30.2812  255 255 255
56.9342 35.8895 9.67724  255 255 255
56.7547 35.8159 9.94395  255 255 255
-42.2438 50.2323 -64.6408  255 255 255
56.9333 45.3994 -36.6196  255 255 255
61.5225 43.1686 -25.7702  255 255 255
56.9563 35.3431 10.1144  255 255 255
-44.425 49.6892 -63.911  255 255 255
57.1337 35.3359 8.75434  255 255 255
29.5133 58.1332 -105.503  255 255 255
57.4444 34.6015 10.8102  255 255 255
61.0657 32.98 18.9756  255 255 255
59.3337 33.4932 14.9454  255 255 255
10.818 54.6832 -96.4297  255 255 255
-80.2564 43.7653 -45.0273  255 255 255
-81.2333 43.3485 -44.1571  255 255 255
60.1351 32.1653 15.9278  255 255 255
-59.2627 45.693 -59.1483  255 255 255
68.6593 28.139 35.9093  255 255 255
-86.1546 41.196 -39.3283  255 255 255
61.0743 39.4619 -29.0298  255 255 255
-4.68234 49.4953 -89.9043  255 255 255
-49.8804 44.3736 -63.7308  255 255 255
61.5341 38.8374 -28.3645  255 255 255
64.8763 28.8031 26.0922  255 255 255
65.7903 28.3684 28.1514  255 255 255
-90.0214 40.1266 -40.8668  255 255 255
-89.9804 40.0742 -40.6466  255 255 255
59.9513 30.3245 14.4708  255 255 255
-2.10354 48.7121 -92.3023  255 255 255
73.8339 52.0587 -103.489  255 255 255
-20.2599 44.527 -72.2755  255 255 255
-6.26321 47.6982 -90.3169  255 255 255
62.5757 37.1958 -26.2605  255 255 255
-86.7395 39.5744 -43.0795  255 255 255
-86.7665 39.6094 -43.1383  255 255 255
-139.713 51.8738 -106.716  255 255 255
-2.53144 47.8755 -92.9998  255 255 255
-41.8705 43.6066 -69.8095  255 255 255
63.122 36.559 -25.3438  255 255 255
59.6689 29.712 12.8848  255 255 255
58.1411 38.9493 -39.9393  255 255 255
56.7734 30.6528 6.26321  255 255 255
56.7399 30.6424 6.301  255 255 255
61.9567 36.7005 -30.3925  255 255 255
-4.79282 46.6759 -92.144  255 255 255
63.6378 35.7592 -24.4093  255 255 255
-2.40011 46.4633 -93.8155  255 255 255
-7.8711 45.7484 -90.9557  255 255 255
60.7325 28.4077 15.2656  255 255 255
62.7647 27.4995 19.6998  255 255 255
65.7144 26.2131 26.5707  255 255 255
65.738 26.1769 26.5822  255 255 255
-7.29148 44.9655 -91.7  255 255 255
-43.1483 40.8875 -70.2158  255 255 255
-41.5308 41.072 -71.6995  255 255 255
-41.5036 40.9935 -71.3713  255 255 255
-135.452 46.5152 -99.6728  255 255 255
-69.6996 38.1064 -55.6757  255 255 255
-35.571 41.0004 -76.6235  255 255 255
-35.5692 41.0116 -76.673  255 255 255
-62.5951 38.2763 -59.8203  255 255 255
-42.9789 39.5898 -71.9295  255 255 255
-75.2386 35.6044 -51.0462  255 255 255
55.9023 27.9313 1.62077  255 255 255
-70.523 36.4967 -56.3793  255 255 255
-28.7713 39.1513 -82.1529  255 255 255
-56.5009 36.7508 -65.6985  255 255 255
67.3674 23.062 28.8884  255 255 255
-90.5133 33.9057 -44.978  255 255 255
-91.4843 33.6469 -44.9847  255 255 255
57.7529 26.129 5.68512  255 255 255
57.7323 26.1208 5.72678  255 255 255
57.4002 26.1782 5.11157  255 255 255
67.9871 22.405 30.1488  255 255 255
-75.4591 34.6498 -56.2216  255 255 255
4.40482 38.7081 -88.1159  255 255 255
58.1636 25.7134 5.42147  255 255 255
-68.7799 34.6711 -59.3382  255 255 255
60.7742 24.6155 12.4168  255 255 255
60.8158 24.6207 12.3819  255 255 255
-41.9079 36.5395 -75.6987  255 255 255
56.9352 25.7694 3.16842  255 255 255
65.984 38.9309 -87.1589  255 255 255
-85.7829 32.9356 -49.3568  255 255 255
67.7449 21.9084 28.502  255 255 255
58.9424 31.6243 -41.6669  255 255 255
-78.8822 33.5635 -58.9458  255 255 255
58.6925 24.2986 6.8921  255 255 255
-39.5016 34.9313 -78.1356  255 255 255
59.3531 29.5854 -40.0112  255 255 255
63.5617 28.3687 -31.1546  255 255 255
63.7045 28.4321 -31.4935  255 255 255
66.2466 20.6397 25.2594  255 255 255
-7.5315 33.5735 -81.2341  255 255 255
-93.6928 29.5966 -46.4663  255 255 255
5.44233 33.1486 -80.4851  255 255 255
65.7899 20.3596 22.4127  255 255 255
-79.4745 30.5558 -62.2296  255 255 255
58.9196 22.0123 6.44731  255 255 255
59.2957 27.6066 -42.3843  255 255 255
2.66001 30.5296 -77.1597  255 255 255
-68.999 29.0468 -62.9068  255 255 255
68.0219 18.4129 29.0923  255 255 255
70.3096 17.8364 33.408  255 255 255
64.3273 24.8781 -30.2035  255 255 255
-90.0611 27.2615 -50.6002  255 255 255
63.431 24.9601 -31.9962  255 255 255
63.5701 25.0045 -32.1576  255 255 255
70.6097 17.3954 33.9679  255 255 255
-69.681 28.0964 -63.6036  255 255 255
-90.6712 26.8345 -52.9243  255 255 255
57.8669 20.1424 2.00311  255 255 255
65.969 17.9749 22.3271  255 255 255
62.37 24.3193 -35.4354  255 255 255
-70.0544 27.2802 -64.0462  255 255 255
-69.4437 27.1881 -64.739  255 255 255
28.7736 27.8886 -74.1523  255 255 255
66.633 17.642 23.6623  255 255 255
-87.9128 25.1432 -53.5616  255 255 255
62.17 17.8524 11.0671  255 255 255
