ply
format ascii 1.0
element vertex 1247
property float x
property float y
property float z
property uchar red
property uchar green
property uchar blue
end_header
13.647 111.073 -54.1127  255 255 255
14.6018 110.492 -55.1885  255 255 255
46.637 117.577 -69.8307  255 255 255
39.8097 115.797 -67.5435  255 255 255
79.0112 122.579 -87.5086  255 255 255
54.1664 115.568 -78.2902  255 255 255
99.7084 128.619 -99.7354  255 255 255
-47.8947 86.3167 -33.7504  255 255 255
15.5901 102.94 -62.238  255 255 255
23.9395 104.047 -67.7586  255 255 255
56.942 45.9193 18.5634  255 255 255
61.1148 40.7908 23.794  255 255 255
-61.7579 79.5068 -29.9672  255 255 255
17.5205 99.0954 -67.5701  255 255 255
-35.3342 84.4989 -43.6564  255 255 255
79.5249 112.479 -95.2039  255 255 255
11.9909 96.1152 -65.7593  255 255 255
48.1864 104.17 -82.1429  255 255 255
-12.1545 88.9352 -55.5139  255 255 255
63.2133 55.7829 -12.0754  255 255 255
60.4741 58.3111 -16.9421  255 255 255
82.0038 107.688 -101.106  255 255 255
69.3437 104.129 -95.1502  255 255 255
12.6912 91.2076 -70.2497  255 255 255
-54.3458 74.4187 -38.2807  255 255 255
50.5525 97.6225 -90.1423  255 255 255
72.7993 101.299 -100.382  255 255 255
61.0838 53.0219 -18.0624  255 255 255
61.2603 52.4476 -19.8038  255 255 255
69.6448 99.0174 -99.7373  255 255 255
27.3307 89.1398 -80.1319  255 255 255
64.1822 26.4582 22.628  255 255 255
-29.6819 76.0716 -53.7516  255 255 255
-21.5482 77.6296 -57.7626  255 255 255
53.055 91.5016 -94.5615  255 255 255
57.1793 52.5339 -29.6814  255 255 255
59.5838 90.6472 -99.4329  255 255 255
71.8639 92.6422 -105.199  255 255 255
5.03081 79.1993 -73.7855  255 255 255
66.6662 91.1725 -104.662  255 255 255
66.3808 19.6722 23.4125  255 255 255
102.319 97.2246 -121.598  255 255 255
46.3286 86.1489 -95.1929  255 255 255
65.5156 18.5185 23.445  255 255 255
72.2407 89.7604 -109.562  255 255 255
94.9304 92.2114 -120.651  255 255 255
80.5142 88.0554 -114.552  255 255 255
24.4714 79.0014 -87.9256  255 255 255
24.4714 79.0015 -87.9259  255 255 255
65.6249 32.8333 -20.7078  255 255 255
66.0069 32.2264 -19.8634  255 255 255
-41.6524 61.7558 -55.9592  255 255 255
14.8264 67.077 -81.7871  255 255 255
30.445 70.4526 -100.016  255 255 255
55.8863 19.4207 -5.07303  255 255 255
65.4209 26.5835 -25.1217  255 255 255
63.7368 71.0569 -118.254  255 255 255
34.0645 64.756 -103.722  255 255 255
75.3105 -5.49691 29.8704  255 255 255
-29.6922 53.8378 -70.1362  255 255 255
66.4217 3.20524 12.3238  255 255 255
70.5571 -1.47524 19.1447  255 255 255
-5.37396 6.76642 22.8651  255 255 255
69.6428 -2.31593 16.3549  255 255 255
3.02033 -2.41085 35.8736  255 255 255
13.0204 54.0375 -98.481  255 255 255
2.11833 -5.23737 37.8372  255 255 255
59.0239 4.56891 -6.61993  255 255 255
-15.3277 46.8234 -81.4918  255 255 255
78.1204 -15.39 30.4202  255 255 255
25.6165 39.6625 -88.8517  255 255 255
-18.6314 -2.3972 28.0118  255 255 255
70.1779 -11.3059 11.7253  255 255 255
69.3551 -10.8904 9.17696  255 255 255
-18.7757 -3.23989 28.422  255 255 255
-19.788 -5.65771 28.7248  255 255 255
5.00962 -14.7542 39.1954  255 255 255
-21.8197 0.732208 10.3492  255 255 255
-20.5947 -6.67025 28.0121  255 255 255
-22.4941 3.6883 0.501845  255 255 255
-1.99278 -14.6187 40.1564  255 255 255
19.859 -15.5249 30.7941  255 255 255
-23.7723 -0.751015 12.2906  255 255 255
-22.4191 -5.50115 24.0683  255 255 255
66.8762 -13.5219 -0.39347  255 255 255
79.4078 -27.2431 24.9189  255 255 255
79.4749 -27.6543 25.0933  255 255 255
-17.5127 -11.5713 33.5551  255 255 255
79.9482 -29.0052 24.957  255 255 255
-83.6831 -26.0799 108.41  255 255 255
-22.1478 -10.4713 27.2626  255 255 255
-82.3055 -26.0987 106.892  255 255 255
2.98609 -20.1441 38.8438  255 255 255
-83.272 -26.18 107.427  255 255 255
-20.7044 -12.7615 29.878  255 255 255
-17.6096 -14.7991 33.5463  255 255 255
10.4029 -22.5213 38.8867  255 255 255
79.6636 -32.471 22.2435  255 255 255
-20.0439 12.2004 -53.4682  255 255 255
-83.3079 -26.7993 107.213  255 255 255
-83.5725 -26.8445 107.421  255 255 255
-18.6453 -17.3768 34.292  255 255 255
-19.1089 -17.9187 34.7601  255 255 255
11.9561 -27.1924 40.2383  255 255 255
17.0544 -28.5142 40.1104  255 255 255
-33.586 -14.3324 24.3682  255 255 255
-16.8361 -22.067 37.4592  255 255 255
78.4187 -37.5521 14.6605  255 255 255
5.09104 -30.1012 44.1218  255 255 255
77.9269 -37.8855 12.5773  255 255 255
4.05386 -30.4545 43.7894  255 255 255
-2.73858 -28.639 42.6746  255 255 255
-29.3354 -19.7501 31.111  255 255 255
-31.949 -17.6912 25.3687  255 255 255
-28.9656 -20.5649 32.4396  255 255 255
0.00465316 -30.5441 43.4725  255 255 255
-2.97585 -30.1103 43.9562  255 255 255
-15.9533 -26.6375 39.9516  255 255 255
-21.5392 -26.3411 37.7006  255 255 255
-21.4847 -26.3609 37.6368  255 255 255
61.7481 -41.2637 13.7137  255 255 255
-3.10345 -32.9595 41.8893  255 255 255
-27.4838 -25.0726 31.6992  255 255 255
-22.525 -27.4148 35.3973  255 255 255
-31.4026 -22.4534 23.195  255 255 255
-23.3718 -27.3219 34.2226  255 255 255
-34.4627 -20.9209 17.2765  255 255 255
-19.489 -30.2664 39.1681  255 255 255
-47.2844 -8.51713 -27.3514  255 255 255
51.6463 -46.3878 20.3091  255 255 255
-23.5508 -30.4793 31.9096  255 255 255
-25.0589 -30.7024 29.7907  255 255 255
-32.6579 -28.0441 25.3682  255 255 255
-25.2831 -31.1431 29.0226  255 255 255
-31.053 -28.2641 22.0316  255 255 255
-45.8456 -16.4099 -17.1106  255 255 255
-32.5738 -28.6797 24.2818  255 255 255
-47.4323 -17.714 -15.595  255 255 255
-16.839 -36.391 35.4018  255 255 255
23.4261 154.52 -64.7049  255 255 255
-11.8512 115.442 -51.7909  255 255 255
-11.5057 114.633 -51.6961  255 255 255
-54.4587 97.0797 -33.3569  255 255 255
42.9169 116.451 -68.4153  255 255 255
35.5745 110.212 -70.4275  255 255 255
51.052 114.526 -76.596  255 255 255
57.7837 70.5499 -12.5839  255 255 255
-58.6281 82.6539 -29.5009  255 255 255
60.5108 66.7897 -11.0786  255 255 255
60.937 39.8912 26.7673  255 255 255
-47.6118 82.9053 -36.1366  255 255 255
17.4268 99.7547 -65.7216  255 255 255
68.7182 110.622 -90.7522  255 255 255
39.6957 103.336 -77.8541  255 255 255
58.7723 63.8811 -18.4795  255 255 255
-45.4749 80.2241 -37.6578  255 255 255
60.9007 60.2362 -15.2413  255 255 255
34.9225 99.668 -77.5175  255 255 255
70.2847 107.336 -94.6484  255 255 255
100.455 112.274 -109.719  255 255 255
62.3613 54.5661 -13.5347  255 255 255
16.4057 91.3624 -72.0267  255 255 255
74.0151 104.68 -99.0356  255 255 255
57.7877 59.0165 -24.5035  255 255 255
-17.4114 81.7751 -57.5402  255 255 255
69.3541 100.713 -98.2642  255 255 255
63.913 49.0944 -12.7088  255 255 255
65.4564 48.5472 -15.4626  255 255 255
100.108 100.986 -117.546  255 255 255
72.1461 94.1426 -104.887  255 255 255
81.8731 94.6732 -110.027  255 255 255
74.5248 92.3806 -107.428  255 255 255
84.7059 93.3885 -111.562  255 255 255
37.9547 84.545 -90.7546  255 255 255
67.5368 89.1534 -105.969  255 255 255
57.7058 48.769 -31.7627  255 255 255
54.89 85.6379 -101.27  255 255 255
65.7772 16.9791 22.9166  255 255 255
18.3533 76.6895 -85.0682  255 255 255
60.4831 41.7886 -29.1191  255 255 255
60.5887 41.8143 -29.2536  255 255 255
60.2429 18.7207 7.73611  255 255 255
59.9467 34.37 -22.8312  255 255 255
30.9347 73.6725 -94.6385  255 255 255
65.5631 31.7326 -21.1079  255 255 255
63.1237 34.0835 -26.1495  255 255 255
88.6771 78.6874 -125.73  255 255 255
-16.3228 63.2079 -71.6595  255 255 255
61.8445 31.766 -32.4005  255 255 255
61.6891 31.67 -32.1751  255 255 255
84.3549 73.8458 -125.945  255 255 255
85.5927 72.7681 -123.783  255 255 255
58.8167 69.8926 -114.143  255 255 255
-24.4919 58.3204 -69.9244  255 255 255
-2.53937 60.5536 -81.6011  255 255 255
15.6692 60.7146 -93.9476  255 255 255
66.4676 4.1281 12.2006  255 255 255
65.9707 3.96947 10.922  255 255 255
2.97053 7.21985 22.305  255 255 255
70.4062 -1.36574 20.5169  255 255 255
0.300931 -2.63175 36.8052  255 255 255
-12.1049 0.522738 31.1414  255 255 255
-14.6986 1.50181 28.0526  255 255 255
76.9386 -15.3301 27.3029  255 255 255
-15.5166 -1.61976 30.5103  255 255 255
-4.94294 -6.69297 38.5856  255 255 255
-6.17215 -6.47348 38.2198  255 255 255
-7.10953 -7.78167 38.5005  255 255 255
78.9529 -19.137 30.1817  255 255 255
69.1805 -11.1797 8.56239  255 255 255
-20.7589 -5.54612 27.5647  255 255 255
68.3468 -13.922 4.26219  255 255 255
-18.9742 -8.18674 31.0819  255 255 255
71.0256 -17.3685 8.49297  255 255 255
71.0255 -17.3685 8.49308  255 255 255
-5.40388 -14.577 39.1282  255 255 255
-19.5712 -9.45059 31.8652  255 255 255
-27.343 0.950237 4.48341  255 255 255
80.0445 -28.0466 25.6982  255 255 255
-22.4306 -7.921 25.7376  255 255 255
-20.9848 -10.0812 28.932  255 255 255
79.4727 -29.0838 23.4003  255 255 255
-0.89735 -20.0775 38.4903  255 255 255
-20.525 -17.1688 33.971  255 255 255
-12.6261 -20.4918 38.1747  255 255 255
-10.3285 -21.339 39.3119  255 255 255
-12.7426 -21.0927 38.741  255 255 255
-83.1256 -27.4498 106.052  255 255 255
-82.3084 -27.3434 104.991  255 255 255
-82.3083 -27.3433 104.99  255 255 255
-8.88776 -24.813 40.1898  255 255 255
-35.1552 -14.7705 23.1705  255 255 255
-26.8126 -19.4978 31.3448  255 255 255
-32.9084 -12.8907 11.597  255 255 255
-30.0446 -18.8562 29.9889  255 255 255
-37.6991 0.948433 -39.0766  255 255 255
-40.1878 0.742898 -39.1378  255 255 255
-17.9536 -25.7832 38.9791  255 255 255
-14.2512 -27.7608 41.9217  255 255 255
-46.839 -5.62714 -31.0654  255 255 255
-1.75614 -36.8533 38.7031  255 255 255
-28.1895 -28.3021 29.2485  255 255 255
-13.544 -33.9036 37.3441  255 255 255
-28.3847 -28.9151 27.8481  255 255 255
-13.6929 -36.7584 35.5226  255 255 255
-7.48703 -38.9601 37.0353  255 255 255
-11.1146 -37.816 36.315  255 255 255
-30.5421 -30.0767 21.2765  255 255 255
22.4115 153.494 -66.9777  255 255 255
21.9356 153.994 -70.4599  255 255 255
-11.1524 115.233 -50.8353  255 255 255
-7.02294 113.072 -48.1914  255 255 255
-22.4188 109.565 -46.6386  255 255 255
0.76783 106.379 -51.8267  255 255 255
33.0198 113.901 -64.5638  255 255 255
31.0835 114.264 -65.695  255 255 255
58.6718 74.1029 -12.2138  255 255 255
-5.50113 98.6163 -52.3159  255 255 255
58.2693 68.7412 -16.6154  255 255 255
-61.5758 78.6092 -30.671  255 255 255
-53.3922 79.0926 -35.5035  255 255 255
56.4062 42.5197 14.5994  255 255 255
16.0117 93.2043 -70.4622  255 255 255
65.5595 51.7609 -8.35646  255 255 255
71.2407 103.439 -97.7527  255 255 255
20.5687 87.7511 -77.3915  255 255 255
-43.9085 72.1407 -46.7859  255 255 255
64.043 43.5503 -16.9076  255 255 255
58.3098 49.8068 -29.2668  255 255 255
58.31 49.8069 -29.2671  255 255 255
57.0748 23.8097 10.2237  255 255 255
-31.6432 66.1436 -59.7011  255 255 255
68.2238 14.7644 18.8906  255 255 255
78.2872 63.6344 -81.3429  255 255 255
64.9918 32.8858 -22.5747  255 255 255
59.799 16.5412 3.76145  255 255 255
57.47 18.1955 -2.9622  255 255 255
60.3062 11.815 2.12924  255 255 255
59.4062 12.1234 -0.290769  255 255 255
59.4297 12.1287 -0.334659  255 255 255
59.1825 12.042 -0.0332245  255 255 255
-3.51446 55.063 -85.9126  255 255 255
66.5179 2.19253 9.23518  255 255 255
59.2427 8.60746 -3.84411  255 255 255
58.7126 8.68662 -2.76743  255 255 255
-2.58659 54.5914 -90.2648  255 255 255
-3.60264 53.5441 -87.4083  255 255 255
14.8377 54.4817 -96.9711  255 255 255
-3.34057 52.4609 -89.2093  255 255 255
-3.34046 52.4611 -89.2099  255 255 255
2.07031 54.4302 -96.4591  255 255 255
67.9908 -6.41105 8.78412  255 255 255
77.9542 -16.823 29.4274  255 255 255
-21.1804 -2.547 24.014  255 255 255
-4.70891 -11.9469 39.5608  255 255 255
-21.3552 -6.09072 26.6238  255 255 255
79.7158 -28.054 24.8716  255 255 255
-0.621693 -17.5674 39.8014  255 255 255
-10.6163 -15.3414 38.2136  255 255 255
80.3613 -31.242 23.8291  255 255 255
78.2407 -29.4706 19.619  255 255 255
-18.5751 -14.4387 32.6586  255 255 255
-30.1861 -7.08961 14.7034  255 255 255
-82.84 -26.6876 106.767  255 255 255
-16.8689 -17.5974 34.5658  255 255 255
1.64033 -25.4914 40.7405  255 255 255
-33.4183 -10.6591 16.5307  255 255 255
79.6101 -36.7889 18.2697  255 255 255
79.6102 -37.4743 17.7958  255 255 255
78.5362 -38.281 14.1616  255 255 255
-41.1746 2.46612 -41.4768  255 255 255
-27.8921 -21.0006 32.9799  255 255 255
-12.4715 -27.3874 41.3078  255 255 255
-22.6431 -26.9099 35.7292  255 255 255
-40.7563 -11.3327 -24.2376  255 255 255
-22.4574 -32.2132 31.792  255 255 255
-22.4573 -32.2132 31.792  255 255 255
-26.3544 -30.7187 28.4428  255 255 255
-21.8707 134.272 -55.7958  255 255 255
-20.1417 131.454 -54.7113  255 255 255
4.2373 131.324 -53.9486  255 255 255
-50.7252 105.782 -29.8652  255 255 255
21.2247 129.181 -64.0279  255 255 255
0.215437 117.518 -52.4002  255 255 255
0.215451 117.519 -52.4003  255 255 255
-7.6589 109.618 -47.4073  255 255 255
-5.37532 105.292 -46.9397  255 255 255
-15.2366 96.6092 -45.8375  255 255 255
61.0724 65.6235 -10.1471  255 255 255
0.730071 95.9643 -58.2413  255 255 255
-27.8156 77.2176 -53.9715  255 255 255
99.3137 99.5271 -118.413  255 255 255
12.9616 76.895 -82.8003  255 255 255
58.9472 42.4137 -32.6558  255 255 255
-5.8463 69.8074 -74.0787  255 255 255
56.6276 23.3474 2.61535  255 255 255
46.2264 69.4748 -111.077  255 255 255
62.9909 28.7005 -30.5946  255 255 255
48.9811 67.5952 -111.566  255 255 255
54.9428 13.6137 -9.56991  255 255 255
58.3423 9.51074 -3.7403  255 255 255
72.4089 -5.50452 21.6693  255 255 255
77.792 -13.3075 31.8553  255 255 255
58.0844 5.00727 -3.86019  255 255 255
77.8589 -15.1033 29.7874  255 255 255
-18.0692 -0.629566 26.6917  255 255 255
-7.00091 -8.37364 37.8046  255 255 255
-7.38777 -9.37234 38.7346  255 255 255
77.148 -19.406 25.138  255 255 255
-20.247 -4.08637 27.1524  255 255 255
-11.3922 -10.1282 37.1732  255 255 255
-6.9398 -11.8055 39.3047  255 255 255
-17.1705 -8.9223 33.2171  255 255 255
-0.621095 -16.4346 39.9559  255 255 255
-19.8991 -10.1816 30.4011  255 255 255
-32.8675 -9.41117 18.1329  255 255 255
-82.6917 -27.0634 106.19  255 255 255
-33.8969 -12.4387 20.9127  255 255 255
80.2365 -38.0162 18.5519  255 255 255
80.2364 -38.0162 18.5519  255 255 255
-34.5785 4.91955 -44.2187  255 255 255
-30.2494 -17.4749 28.7212  255 255 255
-26.8653 -21.4527 33.7128  255 255 255
-7.57502 -28.4855 42.265  255 255 255
-23.1477 -23.7208 36.4148  255 255 255
-10.4396 -33.8671 39.5276  255 255 255
-42.7357 -12.1453 -22.8786  255 255 255
-23.6834 -31.3746 31.0817  255 255 255
2.85557 121.016 -54.6687  255 255 255
9.25044 120.476 -56.2818  255 255 255
-46.1579 86.6314 -34.5887  255 255 255
59.4809 42.9724 23.5469  255 255 255
36.4032 106.828 -73.744  255 255 255
63.712 37.4654 24.3122  255 255 255
-8.86562 87.2265 -55.8097  255 255 255
57.7668 62.6181 -21.7609  255 255 255
72.6207 100.61 -99.0495  255 255 255
60.2559 89.5458 -101.572  255 255 255
63.2623 15.2538 12.6267  255 255 255
2.0565 60.2243 -87.0985  255 255 255
1.8238 58.9369 -89.5324  255 255 255
-10.4969 -3.26813 35.3886  255 255 255
78.8641 -16.8342 31.5366  255 255 255
-11.7992 -3.50387 34.4907  255 255 255
-2.28776 -6.8591 38.6925  255 255 255
60.4126 1.01138 -5.12855  255 255 255
-12.648 -5.41239 34.9793  255 255 255
-12.6577 -5.4019 34.8757  255 255 255
-18.9776 -2.34123 27.4661  255 255 255
-22.4674 -3.36463 20.1291  255 255 255
-21.5945 -7.36669 27.0063  255 255 255
-0.376267 -18.791 39.5872  255 255 255
-82.6098 -26.3175 106.865  255 255 255
-13.2396 -21.2282 38.7903  255 255 255
-25.7353 -22.1494 34.4088  255 255 255
-21.3188 -24.7238 37.807  255 255 255
-20.6868 -25.1378 38.6185  255 255 255
-17.5728 -32.2853 37.358  255 255 255
-32.1014 -25.3243 19.3182  255 255 255
-44.4466 -14.2676 -24.0818  255 255 255
-46.6438 -15.9555 -18.3673  255 255 255
26.5582 112.818 -64.0514  255 255 255
-5.41353 99.5637 -50.4197  255 255 255
-50.0955 85.5541 -32.8797  255 255 255
-61.9785 82.0001 -28.1696  255 255 255
102.047 108.47 -113.563  255 255 255
68.1085 4.92511 19.244  255 255 255
-16.4554 1.93951 25.3491  255 255 255
-21.6828 -2.19388 21.7665  255 255 255
-84.2837 -27.3141 107.922  255 255 255
-82.4227 -29.0491 103.622  255 255 255
-32.1154 -25.5049 27.0313  255 255 255
-23.7529 -30.7137 31.728  255 255 255
55.7733 40.2927 16.2403  255 255 255
36.7686 95.2873 -81.0711  255 255 255
83.029 90.6927 -114.224  255 255 255
-3.9593 73.7146 -70.6423  255 255 255
71.1779 77.9815 -117.717  255 255 255
14.1311 61.1011 -93.2567  255 255 255
16.2423 55.6367 -96.9829  255 255 255
-9.88792 -6.92474 37.2644  255 255 255
-18.3489 -26.7386 40.5746  255 255 255
14.3793 111.499 -55.5557  255 255 255
64.9304 88.672 -103.395  255 255 255
-1.06452 -9.48117 39.9767  255 255 255
-18.2231 -10.5704 32.3862  255 255 255
-84.1613 -26.4388 109.005  255 255 255
-17.3163 -18.7946 36.2283  255 255 255
79.9733 -35.6376 19.1275  255 255 255
-0.0323997 -33.4351 41.313  255 255 255
-0.0143064 -33.4654 41.3503  255 255 255
-32.0653 -25.7065 19.5644  255 255 255
10.4741 107.243 -57.6683  255 255 255
-83.5625 -26.9328 107.209  255 255 255
40.8484 88.2716 -89.0696  255 255 255
-17.5471 -6.2026 31.2712  255 255 255
0.578449 97.433 -57.6068  255 255 255
-43.2514 80.2834 -41.0268  255 255 255
25.7676 86.2716 -86.6606  255 255 255
-26.2746 91.3699 -48.8761  255 255 255
-92.3579 6.62499 103.306  255 255 255
-85.2248 -12.5876 103.974  255 255 255
-164.617 67.8475 -125.86  255 255 255
-163.123 68.7323 -127.398  255 255 255
-168.556 96.3333 -146.639  255 255 255
-149.967 126.135 -89.3745  255 255 255
-131.726 106.424 -67.293  255 255 255
-131.905 66.853 -96.1222  255 255 255
-132.266 120.226 -71.1637  255 255 255
-122.752 92.02 -58.4248  255 255 255
-118.996 99.9584 -44.0001  255 255 255
-118.966 96.437 -48.0847  255 255 255
-117.651 81.6917 -55.614  255 255 255
-145.003 165.453 -101.22  255 255 255
-113.439 45.9692 -73.0912  255 255 255
-110.381 67.5614 -51.5317  255 255 255
-125.028 132.584 -73.6902  255 255 255
-125.668 133.877 -76.0258  255 255 255
-125.099 132.525 -78.8522  255 255 255
-122.664 130.789 -73.5274  255 255 255
-124.865 138.531 -78.1831  255 255 255
-101.079 77.005 -25.5069  255 255 255
-101.079 77.0051 -25.507  255 255 255
-99.369 57.5141 -36.0113  255 255 255
-99.5843 74.0025 -24.4524  255 255 255
-126.149 161.648 -87.4079  255 255 255
-94.2701 36.9204 -41.9177  255 255 255
-92.5869 74.173 -11.492  255 255 255
-113.566 131.751 -65.1011  255 255 255
-119.005 138.474 -95.1328  255 255 255
-91.2008 55.7302 -23.0739  255 255 255
-111.73 130.74 -64.189  255 255 255
-91.5357 41.3815 -40.6374  255 255 255
-111.597 132.567 -66.1338  255 255 255
-90.5721 34.5931 -45.2251  255 255 255
-91.0919 70.2552 -18.741  255 255 255
-90.3701 75.5307 -13.8022  255 255 255
-106.383 120.914 -54.5585  255 255 255
-89.0118 30.4365 -49.8477  255 255 255
-91.1162 81.3284 -17.6553  255 255 255
-108.828 140.655 -60.5185  255 255 255
-88.621 37.2091 -44.1837  255 255 255
-66.0862 -37.4584 7.97354  255 255 255
-87.9305 26.2452 -53.6478  255 255 255
-107.39 144.394 -55.1522  255 255 255
-65.8298 -35.6033 8.03731  255 255 255
-107.133 134.727 -66.0983  255 255 255
-107.058 133.813 -67.0742  255 255 255
-65.4241 -36.8166 8.04543  255 255 255
-89.8403 84.7566 -18.4894  255 255 255
-105.575 133.167 -66.5144  255 255 255
-105.987 139.253 -64.5387  255 255 255
-105.614 137.87 -62.305  255 255 255
-86.408 33.0908 -50.6146  255 255 255
-86.1406 27.19 -56.1975  255 255 255
-105.005 135.16 -67.0953  255 255 255
-85.0374 22.2631 -57.7187  255 255 255
-85.4585 52.6188 -35.9184  255 255 255
-104.51 142.054 -64.5166  255 255 255
-84.3083 49.58 -38.2718  255 255 255
-83.9255 38.0699 -47.4663  255 255 255
-84.4741 56.6725 -33.3097  255 255 255
-88.133 93.2768 -20.5703  255 255 255
-90.3661 103.498 -29.1295  255 255 255
-83.2167 60.4351 -28.96  255 255 255
-88.3169 92.196 -30.4021  255 255 255
-82.9181 77.6127 -16.6964  255 255 255
-81.2954 36.0154 -48.8937  255 255 255
-86.8036 98.1086 -24.7247  255 255 255
-89.2206 108.369 -32.2297  255 255 255
-83.3246 83.0886 -19.3658  255 255 255
-81.0983 64.7992 -20.2336  255 255 255
-81.7504 76.056 -20.2598  255 255 255
-85.8257 101.812 -26.2966  255 255 255
-80.9273 76.8527 -19.8858  255 255 255
-72.1503 0.192706 -39.9165  255 255 255
-78.7036 72.3693 -12.6066  255 255 255
-80.9662 81.3621 -19.2494  255 255 255
-78.8295 40.1516 -51.3335  255 255 255
-81.4461 86.584 -21.139  255 255 255
-77.3359 39.9492 -49.9531  255 255 255
-78.1017 64.2205 -29.9465  255 255 255
-75.2476 69.8334 -0.507896  255 255 255
-77.3938 44.2339 -49.5806  255 255 255
-77.3939 44.234 -49.5809  255 255 255
-77.905 74.8278 -23.281  255 255 255
-83.4162 104.629 -35.3537  255 255 255
-76.2213 44.7846 -48.2439  255 255 255
-76.105 65.8052 -34.4963  255 255 255
-54.0357 -43.5621 17.0856  255 255 255
-83.1905 115.887 -32.8819  255 255 255
-82.049 111.937 -31.4863  255 255 255
-82.8468 116.427 -32.9166  255 255 255
-81.6609 113.819 -31.7768  255 255 255
-90.5942 157.355 -76.3026  255 255 255
-72.6239 77.7462 -12.8523  255 255 255
-71.0117 30.4065 -61.0943  255 255 255
-71.3416 43.3577 -50.9228  255 255 255
-72.5509 68.2151 -31.343  255 255 255
-72.5509 68.2151 -31.343  255 255 255
-58.6256 -18.275 -15.099  255 255 255
-88.351 153.223 -74.0784  255 255 255
-87.639 152.39 -75.0764  255 255 255
-49.8455 -47.616 22.5916  255 255 255
-71.3876 71.3311 -30.3576  255 255 255
-56.8154 -20.4824 -12.7583  255 255 255
-57.1431 -18.018 -14.7435  255 255 255
-77.273 119.777 -35.3656  255 255 255
-67.0223 52.2584 -48.7906  255 255 255
-68.7852 80.6489 -24.08  255 255 255
-84.3022 162.979 -82.186  255 255 255
-54.4883 -18.9942 -13.4607  255 255 255
-84.4463 166.544 -84.8013  255 255 255
-61.732 14.4944 -59.4792  255 255 255
-66.9394 75.4499 -29.0019  255 255 255
-71.9816 111.183 -34.2795  255 255 255
-72.0879 111.487 -34.6653  255 255 255
-63.2209 35.0387 -62.9495  255 255 255
-54.7184 -0.54075 -38.0359  255 255 255
-43.9403 -52.6164 28.4498  255 255 255
-63.7429 78.5367 -29.5467  255 255 255
-62.7357 68.4198 -37.5212  255 255 255
-63.4454 78.0603 -30.2668  255 255 255
-76.1032 160.503 -84.9411  255 255 255
-77.3611 169.745 -89.3466  255 255 255
-51.9163 -6.1122 -30.9253  255 255 255
-49.909 -9.97436 -24.8231  255 255 255
-41.8406 -51.4816 30.4205  255 255 255
-39.4964 -64.4665 44.6488  255 255 255
-60.9934 140.584 -44.9704  255 255 255
-71.7083 172.53 -93.1371  255 255 255
-56.0832 52.1301 -54.7164  255 255 255
-53.8728 37.4835 -66.4133  255 255 255
-68.1879 164.845 -89.2513  255 255 255
-54.6646 57.6349 -52.4356  255 255 255
-37.0853 -66.3834 46.1821  255 255 255
-44.9997 -8.52642 -27.4945  255 255 255
-45.1854 -8.56047 -32.1448  255 255 255
-53.5026 69.4284 -43.7117  255 255 255
-63.461 162.119 -88.6819  255 255 255
-52.2845 69.995 -44.4912  255 255 255
-52.5406 73.8422 -39.603  255 255 255
-53.1282 82.3718 -34.073  255 255 255
-45.0303 10.7679 -52.123  255 255 255
-62.0767 162.282 -88.7907  255 255 255
-34.68 -64.5503 44.0267  255 255 255
-46.2639 47.4944 -63.062  255 255 255
-34.2763 -66.8079 47.1235  255 255 255
-47.5224 70.7152 -47.9251  255 255 255
-54.4909 164.45 -92.1963  255 255 255
-47.6238 104.64 -32.5221  255 255 255
-43.2479 76.9966 -42.8872  255 255 255
-30.2954 -58.6229 36.9905  255 255 255
-38.2145 76.9697 -47.3855  255 255 255
-29.2423 -65.4405 44.6561  255 255 255
-32.5434 -16.0452 23.9904  255 255 255
-28.9703 -68.1965 48.8627  255 255 255
-29.0434 -64.9907 44.9944  255 255 255
-32.6062 -13.0682 22.6837  255 255 255
-30.0953 49.8855 -72.1716  255 255 255
-29.3851 -30.9651 22.1755  255 255 255
-27.2716 -63.7613 44.2081  255 255 255
-30.0508 -3.63908 10.4695  255 255 255
-26.8817 -68.1376 48.4036  255 255 255
-29.3797 -20.5615 30.7128  255 255 255
-26.4973 -60.9688 39.8976  255 255 255
-28.8303 -1.81919 8.16634  255 255 255
-35.1309 135.639 -54.4586  255 255 255
-29.1569 -21.7098 33.6637  255 255 255
-28.67 -4.25031 11.6377  255 255 255
-26.0228 -60.818 39.6926  255 255 255
-33.9036 134.531 -52.7047  255 255 255
-25.5197 -58.3523 35.749  255 255 255
-25.6275 -64.5848 44.5372  255 255 255
-25.9595 65.377 -63.7576  255 255 255
-24.8498 61.8051 -66.4282  255 255 255
-24.9036 -58.4134 36.8301  255 255 255
-25.067 -64.4612 44.6326  255 255 255
-23.0945 53.8054 -73.0932  255 255 255
-23.4681 62.0525 -67.5445  255 255 255
-26.0595 -6.52818 19.7318  255 255 255
-23.5863 -54.0605 33.195  255 255 255
-24.8559 0.374954 5.04738  255 255 255
-25.499 -6.43168 19.9794  255 255 255
-18.994 59.9204 -72.8567  255 255 255
-23.3176 2.69932 2.33015  255 255 255
-19.4152 63.411 -69.2042  255 255 255
-23.7534 94.3516 -40.7847  255 255 255
-18.017 80.0132 -57.2782  255 255 255
-17.968 80.34 -57.8739  255 255 255
-12.9222 17.7233 -61.5838  255 255 255
-13.638 55.9467 -76.6172  255 255 255
-20.7244 -64.6881 44.82  255 255 255
-19.4892 3.38359 7.02847  255 255 255
-19.8884 -64.6127 45.159  255 255 255
-9.88804 63.3249 -78.2971  255 255 255
-13.3622 79.5255 -61.2975  255 255 255
-16.6997 95.3419 -46.0959  255 255 255
-9.94527 66.5317 -74.0105  255 255 255
-17.2635 132.385 -55.0026  255 255 255
-19.2019 -63.4744 43.364  255 255 255
-11.6253 79.259 -62.956  255 255 255
-16.3622 130.335 -52.3627  255 255 255
-18.5175 -63.5292 43.2233  255 255 255
-15.2431 135.631 -56.2214  255 255 255
-14.6951 141.07 -59.0795  255 255 255
-5.63688 23.1953 -66.8715  255 255 255
-14.6253 136.239 -56.6099  255 255 255
-14.349 131.656 -54.7983  255 255 255
-14.306 126.071 -51.6117  255 255 255
-13.8475 132.896 -55.4424  255 255 255
-4.10216 57.1046 -84.8058  255 255 255
-17.569 -61.8343 41.0755  255 255 255
-8.34802 78.076 -66.1605  255 255 255
-18.6639 1.19604 24.3513  255 255 255
-17.3739 -61.9733 41.1982  255 255 255
-17.1814 -61.429 40.4978  255 255 255
-17.1921 -61.3971 40.5384  255 255 255
-12.7229 131.439 -54.2195  255 255 255
-12.7799 133.853 -55.6776  255 255 255
-12.3458 120.911 -50.1217  255 255 255
-11.3417 140.488 -59.6497  255 255 255
-11.0324 142.003 -60.5634  255 255 255
-11.0424 137.382 -58.1813  255 255 255
-18.2835 -18.8505 36.2103  255 255 255
-11.1394 124.875 -52.2824  255 255 255
-0.454064 31.4084 -78.6269  255 255 255
-9.16738 94.3917 -50.8993  255 255 255
-3.02034 68.4833 -75.4936  255 255 255
-10.3049 123 -51.5551  255 255 255
-10.3203 130.002 -54.2007  255 255 255
-9.57562 125.94 -53.4519  255 255 255
-8.76882 143.599 -61.8769  255 255 255
-8.51603 145.052 -62.5208  255 255 255
0.366483 25.4074 -70.4118  255 255 255
-8.0578 127.352 -53.6382  255 255 255
-5.68274 159.859 -75.7996  255 255 255
-7.51392 137.24 -58.2056  255 255 255
-7.98635 113.776 -48.1154  255 255 255
-7.98634 113.776 -48.1155  255 255 255
-7.86709 122.535 -51.4631  255 255 255
1.58076 64.3035 -81.7914  255 255 255
-7.51749 118.037 -49.6584  255 255 255
-7.35403 127.503 -53.357  255 255 255
-6.98852 143.23 -60.1156  255 255 255
-6.69976 140.768 -59.454  255 255 255
-16.0275 -16.7144 34.9408  255 255 255
-6.85558 118.283 -49.676  255 255 255
-2.12738 86.1613 -64.2783  255 255 255
-5.61142 143.612 -62.8855  255 255 255
-6.24276 127.7 -54.3414  255 255 255
-5.3077 141.223 -62.1871  255 255 255
2.62106 23.6289 -69.3184  255 255 255
0.128987 78.0328 -71.4462  255 255 255
-5.60408 133.049 -56.831  255 255 255
-5.00018 145.907 -63.5998  255 255 255
-6.21796 111.849 -47.7632  255 255 255
-6.13522 111.823 -47.7258  255 255 255
-5.91394 132.429 -54.4939  255 255 255
-5.12023 140.396 -58.7075  255 255 255
-15.5495 -7.26602 33.842  255 255 255
-3.83411 144.155 -63.4813  255 255 255
-4.75513 127.602 -53.7906  255 255 255
-3.95302 133.577 -57.3841  255 255 255
-3.95287 133.577 -57.3848  255 255 255
-15.3812 -21.4554 39.1276  255 255 255
6.31385 33.5944 -80.9545  255 255 255
-3.8737 129.44 -54.3221  255 255 255
-14.8613 -4.81614 33.7034  255 255 255
-2.02115 145.434 -65.0389  255 255 255
-14.841 -11.5001 35.697  255 255 255
-14.1109 1.00738 29.1305  255 255 255
15.4942 109.793 -112.943  255 255 255
-14.8011 -20.355 38.0384  255 255 255
-3.23068 119.673 -51.6874  255 255 255
-3.23072 119.673 -51.6871  255 255 255
-2.61974 132.499 -56.8093  255 255 255
4.69996 21.8255 -64.7204  255 255 255
2.26763 85.2348 -65.8545  255 255 255
-2.77588 112.552 -48.8125  255 255 255
-1.78037 114.002 -50.7649  255 255 255
5.1002 79.3147 -74.1621  255 255 255
-13.8779 -3.78022 33.5769  255 255 255
0.229476 146.622 -65.7696  255 255 255
-12.7664 -64.2745 43.9481  255 255 255
0.674207 147.794 -66.5339  255 255 255
8.76643 30.6716 -76.8791  255 255 255
-13.4759 -7.01202 35.3678  255 255 255
13.0564 54.1094 -98.7133  255 255 255
8.81846 27.6016 -71.983  255 255 255
8.74472 27.5758 -71.785  255 255 255
3.65191 91.071 -62.9521  255 255 255
-0.608439 108.384 -47.533  255 255 255
0.392865 133.783 -56.8852  255 255 255
2.5732 148.963 -70.4672  255 255 255
2.61506 148.179 -67.2088  255 255 255
-11.8755 -35.7324 37.1636  255 255 255
7.76626 81.9731 -73.0999  255 255 255
1.28858 113.744 -49.9551  255 255 255
0.935304 107.304 -46.4054  255 255 255
3.69364 147.484 -66.7998  255 255 255
3.73456 147.781 -67.3143  255 255 255
4.43744 148.937 -68.1006  255 255 255
2.17824 130.286 -52.1741  255 255 255
-10.1798 -46.456 35.8364  255 255 255
-11.9887 -4.42377 35.3658  255 255 255
11.7166 26.5376 -71.7837  255 255 255
11.1818 77.2072 -78.7687  255 255 255
5.41795 147.759 -67.1142  255 255 255
5.43955 147.938 -67.4227  255 255 255
-11.8064 -7.13294 36.5978  255 255 255
7.45092 94.8113 -63.8241  255 255 255
3.57831 110.48 -48.7618  255 255 255
1.95421 108.764 -41.8721  255 255 255
4.04049 114.556 -51.6222  255 255 255
2.97941 112.078 -44.5355  255 255 255
7.00684 147.181 -66.7602  255 255 255
-10.2747 0.227351 32.5227  255 255 255
-8.94838 -47.2892 36.8986  255 255 255
13.6469 22.0222 -65.8365  255 255 255
6.61767 115.713 -51.681  255 255 255
13.2472 88.1008 -72.7006  255 255 255
21.8735 55.706 -102.292  255 255 255
-9.8343 -18.335 38.0842  255 255 255
8.17743 121.275 -56.1181  255 255 255
7.6352 110.624 -50.3069  255 255 255
7.72102 129.752 -54.3005  255 255 255
-7.80902 -60.866 39.784  255 255 255
19.7809 71.7987 -89.2346  255 255 255
9.90644 123.366 -57.2488  255 255 255
14.4263 92.9338 -69.2249  255 255 255
9.29788 110.995 -50.6109  255 255 255
-8.99575 -10.8221 38.6984  255 255 255
18.116 86.5834 -77.378  255 255 255
11.2509 115.576 -54.8792  255 255 255
11.8913 120.063 -57.2103  255 255 255
11.6243 119.563 -56.3378  255 255 255
11.6243 119.563 -56.3378  255 255 255
-8.41925 -16.9973 39.0962  255 255 255
13.3361 104.28 -58.764  255 255 255
11.7705 112.529 -51.2913  255 255 255
21.6859 78.6742 -83.4061  255 255 255
20.9939 84.1258 -80.8402  255 255 255
-6.19959 -61.737 40.6672  255 255 255
21.4707 84.4844 -79.9154  255 255 255
-7.46606 -5.77405 37.7985  255 255 255
22.8649 78.8566 -83.7726  255 255 255
-7.33624 -35.4893 41.4695  255 255 255
21.992 83.9864 -80.1611  255 255 255
14.8189 122.656 -57.9638  255 255 255
23.4251 81.7981 -83.7457  255 255 255
18.428 101.011 -66.3856  255 255 255
14.3477 112.533 -52.7407  255 255 255
-6.9329 -6.97798 38.4356  255 255 255
-6.44918 -3.44416 36.7984  255 255 255
19.7937 100.954 -67.4282  255 255 255
-6.64207 -12.7605 39.5565  255 255 255
-7.02486 -28.9767 42.9031  255 255 255
15.8974 112.724 -52.8913  255 255 255
18.0765 128.314 -61.1749  255 255 255
18.7359 135.552 -64.3505  255 255 255
20.7493 102.488 -67.4269  255 255 255
-5.76066 -6.7307 38.4242  255 255 255
20.7865 104.911 -65.2065  255 255 255
-5.84906 -10.4515 39.3749  255 255 255
21.1933 105.457 -64.6989  255 255 255
20.1496 131.585 -64.1314  255 255 255
-5.02593 -3.34775 36.9555  255 255 255
17.8553 113.944 -53.3428  255 255 255
17.8553 113.944 -53.3427  255 255 255
21.7672 151.231 -65.8382  255 255 255
19.7176 114.39 -55.2201  255 255 255
21.6027 129.559 -63  255 255 255
34.9939 68.6348 -101.659  255 255 255
-2.72478 -60.465 39.1827  255 255 255
22.3191 118.029 -58.6941  255 255 255
23.7635 128.212 -63.9303  255 255 255
23.7634 128.212 -63.9302  255 255 255
23.4307 124.547 -62.0095  255 255 255
23.4306 124.547 -62.0094  255 255 255
36.9512 70.1912 -100.925  255 255 255
24.7264 130.749 -65.0089  255 255 255
23.0425 119.042 -58.2355  255 255 255
25.37 131.515 -65.4502  255 255 255
-4.33388 -29.925 44.1911  255 255 255
-3.33281 -28.7458 42.0836  255 255 255
28.0199 106.317 -68.5932  255 255 255
26.1887 126.209 -63.0818  255 255 255
-2.04748 -22.6038 40.8826  255 255 255
-2.04748 -22.6038 40.8826  255 255 255
32.628 23.7314 -67.8607  255 255 255
29.918 122.42 -62.5959  255 255 255
33.9378 24.3005 -68.6505  255 255 255
35.0254 105.224 -74.3915  255 255 255
-0.43519 -13.5122 39.5602  255 255 255
44.8842 88.2184 -93.4661  255 255 255
37.9739 111.921 -73.6755  255 255 255
0.0860693 -30.6362 43.8944  255 255 255
46.9077 100.256 -86.3769  255 255 255
46.7051 102.956 -82.0292  255 255 255
47.9759 100.617 -85.0199  255 255 255
-92.2131 6.09853 103.276  255 255 255
-138.26 -0.86972 -37.0325  255 255 255
-193.589 136.069 -168.997  255 255 255
-162.646 66.3537 -125.143  255 255 255
-184.639 117.688 -159.156  255 255 255
-168.126 131.079 -120.566  255 255 255
-164.687 139.209 -107.949  255 255 255
-166.602 102.527 -136.64  255 255 255
-164.138 128.108 -114.303  255 255 255
-164.286 115.511 -124.908  255 255 255
-162.679 129.207 -114.584  255 255 255
-162.787 97.4091 -136.807  255 255 255
-157.801 125.603 -107.506  255 255 255
-142.465 82.1324 -105.152  255 255 255
-140.162 85.4584 -100.622  255 255 255
-132.214 104.934 -70.3906  255 255 255
-132.569 116.069 -63.7761  255 255 255
-131.607 99.5464 -71.6617  255 255 255
-130.372 97.1328 -67.8134  255 255 255
-132.168 95.8988 -77.1824  255 255 255
-131.578 115.015 -65.8106  255 255 255
-125.737 87.255 -66.6293  255 255 255
-150.179 161.99 -102.224  255 255 255
-125.464 108.459 -56.8874  255 255 255
-123.384 89.123 -62.3965  255 255 255
-135.821 133.271 -77.7564  255 255 255
-112.592 72.8166 -50.5344  255 255 255
-113.579 77.604 -50.5796  255 255 255
-113.579 77.6041 -50.5797  255 255 255
-109.886 77.0479 -42.3667  255 255 255
-138.474 170.189 -105.75  255 255 255
-96.1982 76.7374 -14.5922  255 255 255
-78.8063 -20.0195 -15.0682  255 255 255
-100.928 97.4474 -25.7159  255 255 255
-77.3778 -21.1118 -12.6702  255 255 255
-92.8227 29.6177 -48.0289  255 255 255
-91.5651 38.6583 -41.7176  255 255 255
-111.852 132.596 -64.2605  255 255 255
-111.738 134.076 -63.1939  255 255 255
-90.9563 38.7537 -41.9636  255 255 255
-110.886 136.031 -62.8985  255 255 255
-90.5621 61.9705 -24.5249  255 255 255
-110.145 131.094 -67.058  255 255 255
-89.959 58.6045 -27.7079  255 255 255
-109.138 133.839 -65.44  255 255 255
-108.017 135.604 -62.154  255 255 255
-108.032 132.342 -66.7709  255 255 255
-107.741 131.545 -65.3297  255 255 255
-107.605 132.723 -64.5037  255 255 255
-107.947 133.833 -66.3245  255 255 255
-106.153 135.234 -67.8935  255 255 255
-86.9598 49.9364 -36.808  255 255 255
-86.2429 45.4438 -39.8898  255 255 255
-105.252 135.865 -65.9146  255 255 255
-85.3997 28.4314 -53.6001  255 255 255
-78.1735 -0.0447467 -38.8841  255 255 255
-86.0712 59.3363 -30.0012  255 255 255
-85.2924 31.0086 -52.9128  255 255 255
-88.9905 90.8751 -19.6108  255 255 255
-84.9337 41.0066 -45.3294  255 255 255
-103.375 135.789 -65.1411  255 255 255
-84.0087 39.1811 -47.2574  255 255 255
-57.7498 -48.3111 23.8631  255 255 255
-83.1345 41.3534 -46.079  255 255 255
-82.9024 76.7083 -18.1037  255 255 255
-82.4846 76.7013 -17.2346  255 255 255
-82.0972 65.0729 -27.7732  255 255 255
-84.7328 107.601 -28.9701  255 255 255
-51.8829 -52.932 29.1992  255 255 255
-75.8597 75.5542 -24.6818  255 255 255
-53.4561 -44.5834 18.0285  255 255 255
-92.5555 161.341 -77.8581  255 255 255
-74.3614 78.934 -21.6583  255 255 255
-58.2241 -18.3032 -16.3955  255 255 255
-57.4146 -20.1402 -14.0111  255 255 255
-68.3882 61.6957 -40.2263  255 255 255
-74.3806 121.844 -31.8805  255 255 255
-56.7133 -5.95951 -30.5135  255 255 255
-67.6303 79.043 -26.8891  255 255 255
-54.7767 -7.48573 -29.7243  255 255 255
-42.1294 -64.4913 43.6553  255 255 255
-44.645 -51.3114 26.9184  255 255 255
-53.4599 -8.4172 -27.2248  255 255 255
-62.0063 47.9331 -53.1168  255 255 255
-61.0083 48.12 -54.0975  255 255 255
-42.4084 -56.8234 34.5804  255 255 255
-62.5597 83.4452 -27.4059  255 255 255
-60.1507 65.4539 -42.8465  255 255 255
-58.2459 46.3941 -57.6566  255 255 255
-50.8718 29.2147 -73.9907  255 255 255
-50.3618 50.088 -59.7812  255 255 255
-58.4236 125.43 -137.767  255 255 255
-49.0788 45.8951 -61.8848  255 255 255
-34.9329 -64.8072 45.177  255 255 255
-50.8444 83.9193 -33.9578  255 255 255
-46.3519 73.0116 -46.0462  255 255 255
-41.955 52.9779 -63.8886  255 255 255
-46.5354 100.35 -36.2197  255 255 255
-41.0934 54.3089 -62.7756  255 255 255
-42.2583 70.6593 -49.8875  255 255 255
-31.0211 -64.6391 44.5957  255 255 255
-31.0211 -64.6391 44.5957  255 255 255
-30.8571 -65.2991 44.7607  255 255 255
-30.431 -60.4737 38.5605  255 255 255
-41.1065 88.5574 -36.8001  255 255 255
-30.1455 -57.2442 35.0176  255 255 255
-30.0158 -59.768 38.2935  255 255 255
-31.4252 -28.2363 20.9364  255 255 255
-33.8941 55.3764 -67.2594  255 255 255
-28.4899 -65.5816 45.6571  255 255 255
-28.4512 -67.5969 48.0451  255 255 255
-31.5648 -17.6609 26.8416  255 255 255
-29.9723 55.329 -69.7684  255 255 255
-30.1157 54.9396 -68.2286  255 255 255
-30.5346 -15.8193 27.106  255 255 255
-27.1254 -60.9636 39.9186  255 255 255
-29.1547 -5.69061 12.955  255 255 255
-29.1718 -4.8151 11.7265  255 255 255
-26.5071 -58.421 36.6642  255 255 255
-26.5913 -67.9876 49.0406  255 255 255
-26.5337 -68.3366 48.4281  255 255 255
-26.405 -59.9995 38.6437  255 255 255
-29.2253 -22.086 34.1443  255 255 255
-26.8026 62.1803 -65.6503  255 255 255
-25.8233 57.9163 -70.1421  255 255 255
-25.585 -57.6742 35.7118  255 255 255
-24.9244 -66.2612 46.9919  255 255 255
-24.6525 -61.9491 40.8858  255 255 255
-24.1346 -59.2298 37.6265  255 255 255
-25.8937 -4.58123 17.2989  255 255 255
-24.6501 -34.413 28.563  255 255 255
-15.5074 59.8316 -75.5428  255 255 255
-16.3452 64.1319 -69.7061  255 255 255
-21.992 94.6085 -42.7338  255 255 255
-23.191 113.517 -41.3693  255 255 255
-20.5248 -62.2584 41.5812  255 255 255
-20.1533 -61.8695 40.9998  255 255 255
-8.29092 41.7139 -91.3267  255 255 255
-20.1238 -66.3601 44.6352  255 255 255
-19.749 -62.2039 41.4341  255 255 255
-20.0194 -64.5387 44.6275  255 255 255
-19.1844 -61.195 40.3143  255 255 255
-19.3786 -64.1446 44.3149  255 255 255
-18.8673 -63.9544 44.1992  255 255 255
-15.8349 126.713 -50.9465  255 255 255
-15.5516 138.773 -56.6722  255 255 255
-19.2304 1.13724 23.1325  255 255 255
-14.8356 126.225 -52.4639  255 255 255
-5.48842 57.5297 -82.0199  255 255 255
-19.4761 -13.1396 33.0326  255 255 255
-13.9781 122.091 -50.2844  255 255 255
-13.6155 134.555 -56.3186  255 255 255
-13.6037 139.795 -58.0721  255 255 255
-11.9991 143.427 -60.1849  255 255 255
-16.8223 -61.993 41.2997  255 255 255
-11.5228 129.411 -53.9478  255 255 255
-11.5229 129.411 -53.9477  255 255 255
-16.6609 -61.475 41.3159  255 255 255
-9.1584 92.8252 -54.5591  255 255 255
-8.15266 88.3708 -57.4454  255 255 255
-8.21207 88.2286 -57.2069  255 255 255
-11.1687 120.15 -50.0328  255 255 255
-11.0115 122.49 -51.3551  255 255 255
-17.4166 1.62499 25.5205  255 255 255
-10.5096 128.94 -55.4034  255 255 255
-10.5476 128.348 -54.614  255 255 255
-17.7404 -19.0382 36.411  255 255 255
-16.1037 3.31424 24.3584  255 255 255
-16.0038 3.36293 23.9492  255 255 255
-8.63292 134.497 -54.9179  255 255 255
-8.01013 126.182 -53.7784  255 255 255
-7.1467 139.395 -59.9951  255 255 255
-4.68601 91.8743 -57.7073  255 255 255
-8.09725 113.98 -46.8426  255 255 255
0.490298 19.5136 -63.5995  255 255 255
-3.38192 85.6612 -61.7456  255 255 255
-16.1648 -23.8461 37.5895  255 255 255
-15.6684 -32.5028 37.9167  255 255 255
-6.4493 125.323 -52.4071  255 255 255
-6.44927 125.323 -52.4073  255 255 255
-4.69962 127.409 -56.8508  255 255 255
-5.12141 118.667 -51.4244  255 255 255
-5.12142 118.667 -51.4243  255 255 255
-4.572 132.535 -58.1191  255 255 255
-14.433 -35.8906 35.9886  255 255 255
-4.83178 113.635 -49.1267  255 255 255
-4.81277 113.785 -49.3553  255 255 255
-4.18141 138.207 -59.4362  255 255 255
-5.06114 107.984 -45.0677  255 255 255
-3.52046 130.58 -57.6574  255 255 255
-14.9164 -16.4679 35.8986  255 255 255
-15.0456 -20.0355 37.9586  255 255 255
-2.87052 101.843 -50.844  255 255 255
2.5273 80.3165 -70.9108  255 255 255
-3.25467 108.555 -46.0184  255 255 255
-2.46777 115.54 -51.1183  255 255 255
-0.514209 96.3924 -55.3125  255 255 255
-1.54066 140.768 -60.9292  255 255 255
-12.4419 5.09026 25.112  255 255 255
2.30007 97.9878 -58.0728  255 255 255
6.89547 82.4534 -74.157  255 255 255
10.3198 67.8987 -85.4383  255 255 255
-12.5211 -0.783168 32.1069  255 255 255
-10.3867 5.50956 24.7218  255 255 255
4.96346 98.8287 -59.27  255 255 255
2.15989 116.91 -51.0278  255 255 255
14.9787 61.3419 -90.5766  255 255 255
-10.4331 0.559074 31.9589  255 255 255
-10.6325 -7.71019 37.5847  255 255 255
-10.2614 -7.9033 37.3668  255 255 255
6.10746 130.661 -50.3517  255 255 255
12.578 91.0896 -69.7493  255 255 255
18.2206 67.3196 -85.8463  255 255 255
12.5427 100.475 -63.0912  255 255 255
11.6173 122.545 -56.757  255 255 255
11.5951 122.496 -56.6894  255 255 255
13.0494 107.759 -56.8401  255 255 255
14.8009 102.684 -62.2442  255 255 255
12.8018 115.83 -55.2095  255 255 255
12.7271 115.547 -54.6867  255 255 255
14.6667 137.446 -60.2148  255 255 255
-7.25443 -17.9385 39.2393  255 255 255
22.7029 85.8432 -80.0401  255 255 255
22.5726 85.7203 -79.6679  255 255 255
-7.12077 -11.5563 39.9658  255 255 255
20.3784 99.0065 -69.0585  255 255 255
17.7419 128.865 -62.8839  255 255 255
-6.15514 -4.55433 37.2745  255 255 255
17.6077 113.436 -53.729  255 255 255
27.9653 81.4341 -86.8577  255 255 255
23.046 102.867 -67.909  255 255 255
33.4071 68.6596 -99.2589  255 255 255
30.5516 79.7773 -89.2102  255 255 255
24.4738 103.17 -68.1917  255 255 255
22.9592 130.382 -64.8149  255 255 255
22.9042 130.212 -64.5005  255 255 255
24.6363 104.666 -67.0651  255 255 255
33.6009 75.4687 -94.6353  255 255 255
24.787 135.174 -66.8447  255 255 255
25.9008 104.953 -67.7129  255 255 255
24.6077 124.156 -62.2377  255 255 255
36.7172 42.2934 -91.8722  255 255 255
30.6924 102.26 -73.7069  255 255 255
26.758 126.269 -62.3714  255 255 255
26.7581 126.269 -62.3715  255 255 255
26.8571 117.045 -59.5067  255 255 255
-0.0117725 -34.7261 40.533  255 255 255
2.89868 -43.8319 33.8696  255 255 255
0.644344 -11.4572 39.8678  255 255 255
43.3336 97.0732 -86.5533  255 255 255
0.0812902 -30.1764 43.9307  255 255 255
42.434 104.866 -79.7239  255 255 255
42.434 104.866 -79.7238  255 255 255
39.7463 111.927 -70.44  255 255 255
58.8962 67.3298 -115.132  255 255 255
-96.9479 11.635 101.818  255 255 255
-176.268 107.033 -153.354  255 255 255
-163.513 121.748 -119.185  255 255 255
-151.974 113.124 -103.558  255 255 255
-140.787 128.761 -79.133  255 255 255
-145.111 136.971 -88.0582  255 255 255
-140.787 135.736 -82.546  255 255 255
-128.203 103.604 -61.4053  255 255 255
-138.439 132.921 -80.0547  255 255 255
-150.379 160.705 -103.879  255 255 255
-118.802 79.3777 -59.9406  255 255 255
-103.944 70.7623 -32.5069  255 255 255
-82.2815 -15.1767 -20.6929  255 255 255
-95.8753 56.2517 -30.1089  255 255 255
-94.5792 74.6267 -12.3753  255 255 255
-117.708 138.789 -69.5481  255 255 255
-90.6151 71.0329 -17.7344  255 255 255
-89.2906 52.7 -33.0022  255 255 255
-88.9961 46.8402 -36.8596  255 255 255
-107.475 135.686 -65.649  255 255 255
-106.23 138.925 -60.2029  255 255 255
-87.4733 65.3992 -23.8688  255 255 255
-87.6008 65.5775 -24.5115  255 255 255
-86.7579 47.6696 -38.4766  255 255 255
-87.081 74.3469 -17.3789  255 255 255
-104.061 136.715 -61.8636  255 255 255
-85.6339 39.5146 -46.3092  255 255 255
-85.5064 44.1482 -41.2206  255 255 255
-91.0344 97.0804 -25.0301  255 255 255
-84.2765 31.7549 -52.4124  255 255 255
-84.019 75.4191 -18.9345  255 255 255
-82.6814 61.9578 -31.1165  255 255 255
-85.0883 105.102 -27.0126  255 255 255
-77.3665 41.7686 -49.22  255 255 255
-84.0884 109.277 -29.317  255 255 255
-73.3629 77.011 -23.7616  255 255 255
-70.6271 79.9404 -22.3449  255 255 255
-45.3859 -54.3922 29.2561  255 255 255
-91.8284 218.154 -141.411  255 255 255
-65.4739 71.0496 -35.6162  255 255 255
-65.4419 70.8204 -35.1539  255 255 255
-54.6031 -4.04329 -33.3136  255 255 255
-44.5287 -50.4377 25.9854  255 255 255
-53.0006 -3.41977 -33.3769  255 255 255
-62.1597 77.3861 -31.8701  255 255 255
-56.4647 31.8684 -67.2186  255 255 255
-47.2839 -14.5244 -19.3231  255 255 255
-59.0911 83.562 -27.4419  255 255 255
-38.7618 -64.7269 45.3974  255 255 255
-47.7817 -9.09691 -27.0536  255 255 255
-39.5589 -53.7755 30.7812  255 255 255
-56.0852 84.2669 -28.4344  255 255 255
-38.3604 -56.4616 33.8638  255 255 255
-37.0791 -62.7323 42.0621  255 255 255
-37.0829 -62.6861 42.105  255 255 255
-54.1565 84.1071 -30.5123  255 255 255
-45.5602 17.7195 -60.6909  255 255 255
-49.1402 72.9389 -46.3924  255 255 255
-33.2397 -65.2691 45.9598  255 255 255
-46.9828 105.508 -32.4362  255 255 255
-42.1666 88.2744 -36.1146  255 255 255
-31.0099 -58.5894 37.0028  255 255 255
-40.5981 244.066 -168.89  255 255 255
-27.2415 -68.0161 48.326  255 255 255
-26.8874 -58.1121 36.2436  255 255 255
-26.3197 -1.21872 7.11334  255 255 255
-23.6784 73.1905 -60.1611  255 255 255
-25.8548 92.8731 -42.8849  255 255 255
-23.651 -1.77378 13.8305  255 255 255
-22.1382 -60.1701 38.7417  255 255 255
-22.6103 -68.4868 49.7445  255 255 255
-15.2135 18.7415 -61.0057  255 255 255
-21.9854 2.31915 3.23199  255 255 255
-20.3272 -64.7569 44.8441  255 255 255
-19.6132 -61.3133 40.4334  255 255 255
-19.5794 -27.836 39.7611  255 255 255
-6.03614 68.194 -74.398  255 255 255
-6.03613 68.194 -74.3981  255 255 255
-4.68551 77.2974 -69.1142  255 255 255
3.7075 239.512 -166.073  255 255 255
-9.7853 115.427 -48.8129  255 255 255
-7.17622 103.67 -46.8561  255 255 255
-16.1533 -19.7554 37.2199  255 255 255
-4.09358 133.369 -55.0702  255 255 255
-13.6759 -37.3252 35.5255  255 255 255
-0.0236659 94.6285 -58.9891  255 255 255
-1.82169 135.964 -60.043  255 255 255
-1.13596 100.202 -53.7517  255 255 255
7.69147 29.903 -76.1745  255 255 255
-12.7798 -63.1167 42.6828  255 255 255
-14.1643 -13.0532 36.4562  255 255 255
-14.1526 -13.0328 36.391  255 255 255
6.30785 82.7261 -71.5379  255 255 255
-11.525 5.34556 25.1041  255 255 255
14.3336 57.6032 -94.7485  255 255 255
-10.6107 -47.1449 36.7128  255 255 255
-11.0133 -63.4446 42.8996  255 255 255
-10.6476 1.36388 31.433  255 255 255
15.6516 78.8128 -80.6887  255 255 255
-10.0276 -17.6592 39.956  255 255 255
-9.48178 -1.58215 35.8058  255 255 255
10.7613 103.863 -58.9411  255 255 255
13.3909 100.05 -64.1226  255 255 255
-8.89497 -11.3138 39.4845  255 255 255
18.5917 97.3448 -69.8191  255 255 255
15.9418 106.66 -59.8969  255 255 255
-6.18116 -38.7407 38.1792  255 255 255
15.4201 137.639 -58.6893  255 255 255
15.9619 137.242 -60.0129  255 255 255
24.8869 84.7866 -80.6338  255 255 255
25.17 85.138 -81.5416  255 255 255
24.887 84.7866 -80.6339  255 255 255
-5.75057 -5.89776 37.4322  255 255 255
28.0624 81.51 -87.2493  255 255 255
21.9038 104.056 -66.4345  255 255 255
28.7281 85.3823 -84.6658  255 255 255
33.6646 82.2833 -89.4759  255 255 255
27.3649 101.116 -69.745  255 255 255
35.9202 40.7178 -89.8524  255 255 255
-2.9342 -7.39547 39.256  255 255 255
29.1677 104.925 -70.4848  255 255 255
-2.43616 -11.5205 39.2131  255 255 255
2.33052 2.61524 24.587  255 255 255
30.3292 99.1678 -67.7266  255 255 255
-1.84199 -28.7586 42.8118  255 255 255
29.6932 112.097 -61.7752  255 255 255
39.7158 93.0757 -86.5245  255 255 255
2.60632 -44.1742 33.7507  255 255 255
44.2088 83.2986 -95.3836  255 255 255
40.905 98.321 -84.6619  255 255 255
44.8162 86.7002 -94.8429  255 255 255
36.9356 112.755 -66.2232  255 255 255
39.8444 110.865 -71.5217  255 255 255
-97.3853 -39.6684 12.1134  255 255 255
-216.308 158.267 -202.118  255 255 255
-206.396 145.207 -192.181  255 255 255
-128.587 29.7994 -80.2052  255 255 255
-144.879 94.41 -101.939  255 255 255
-142.438 125.916 -76.9469  255 255 255
-140.391 89.0812 -97.2281  255 255 255
-140.391 89.0813 -97.2282  255 255 255
-136.124 99.8625 -81.3592  255 255 255
-134.84 88.825 -85.6853  255 255 255
-131.228 107.914 -63.5153  255 255 255
-111.821 74.0266 -48.263  255 255 255
-91.0685 58.0166 -28.3632  255 255 255
-90.7577 85.423 -17.8549  255 255 255
-86.754 75.7448 -17.6374  255 255 255
-83.8065 44.965 -42.7878  255 255 255
-87.0119 98.5208 -24.5039  255 255 255
-87.0119 98.5208 -24.5037  255 255 255
