ply
format ascii 1.0
element vertex 1248
property float x
property float y
property float z
property uchar red
property uchar green
property uchar blue
end_header
-75.3383 29.1159 -43.7572  255 255 255
23.9146 35.5892 -74.6574  255 255 255
49.6606 20.2946 -36.6646  255 255 255
-6.40161 19.6927 -53.7174  255 255 255
-71.6005 18.7145 -49.2632  255 255 255
48.9288 8.87913 -6.2711  255 255 255
-75.7681 9.70911 -38.4841  255 255 255
-22.0999 8.21044 -39.861  255 255 255
-66.3548 0.172668 -28.3376  255 255 255
-7.91878 -4.26799 30.5598  255 255 255
-7.25394 -8.58803 33.5766  255 255 255
50.0287 -11.9729 -15.0235  255 255 255
-21.9624 -12.6453 24.2201  255 255 255
52.4759 -12.9537 -11.3055  255 255 255
52.2366 -12.9572 -10.6477  255 255 255
-26.8278 -18.6145 26.6379  255 255 255
-3.41861 -38.8044 32.4905  255 255 255
58.4747 -43.6483 13.5675  255 255 255
22.4757 -54.4278 27.2954  255 255 255
-70.9004 2.57203 -31.3574  255 255 255
20.6649 53.8846 -88.46  255 255 255
-5.16275 -22.7551 34.658  255 255 255
-38.6171 13.368 -45.0703  255 255 255
43.8104 -46.7986 17.9597  255 255 255
19.6315 36.0147 -73.7383  255 255 255
45.2721 -45.9835 16.5942  255 255 255
-73.7092 28.5536 -43.0258  255 255 255
46.9063 -44.5868 15.2799  255 255 255
41.6369 -29.7155 -2.00267  255 255 255
-38.5532 7.17441 -38.0317  255 255 255
6.94084 0.0427233 24.3701  255 255 255
50.2598 -14.9547 -17.9961  255 255 255
16.2915 -29.2254 35.0863  255 255 255
-3.0214 14.3374 -47.9376  255 255 255
-6.97226 -17.6711 35.2727  255 255 255
-34.3017 3.39181 -34.2691  255 255 255
-12.6739 -0.674419 24.1123  255 255 255
45.5548 -47.0552 18.0045  255 255 255
14.9937 -56.865 30.8369  255 255 255
23.9815 28.1664 -65.882  255 255 255
23.9815 28.1664 -65.882  255 255 255
-19.9937 -3.12063 12.8981  255 255 255
51.9452 -15.8474 -14.8593  255 255 255
49.7468 -39.0556 8.3343  255 255 255
-27.5614 28.0963 -62.5288  255 255 255
-3.36488 22.5399 -57.6927  255 255 255
-3.4603 15.7783 -50.1436  255 255 255
24.4735 6.57111 -40.9197  255 255 255
-3.24282 -8.41432 34.3121  255 255 255
-27.7398 -9.99576 16.6498  255 255 255
-54.0838 -13.0617 -13.8284  255 255 255
20.9346 -12.6452 20.0256  255 255 255
11.7784 -14.3532 31.454  255 255 255
22.4251 41.8771 -82.2013  255 255 255
47.5377 22.5809 -39.2513  255 255 255
-45.2157 -25.0474 -0.918925  255 255 255
49.8521 -39.5764 9.72565  255 255 255
50.1826 -41.6052 11.205  255 255 255
-11.7122 -10.4602 32.4077  255 255 255
-62.8029 -13.4906 -13.5782  255 255 255
-0.873606 -58.5649 34.0725  255 255 255
-0.947672 -58.2258 33.8703  255 255 255
46.1473 26.8397 -40.9716  255 255 255
49.024 -14.0093 -19.5764  255 255 255
49.0147 -42.4143 12.0285  255 255 255
3.50244 50.2034 -79.0362  255 255 255
-7.96228 13.7253 -47.0823  255 255 255
54.5572 -13.5167 -7.17605  255 255 255
-8.70196 -16.9513 34.6522  255 255 255
48.0539 -41.0149 10.8336  255 255 255
33.9046 -49.7744 21.7444  255 255 255
20.3119 40.9582 -78.9649  255 255 255
51.0916 -8.33505 -11.5117  255 255 255
5.92778 -18.3758 34.7272  255 255 255
46.8222 23.9179 -41.2722  255 255 255
-44.684 -8.12473 -20.1779  255 255 255
29.7832 15.7582 -51.1152  255 255 255
-73.3934 3.29006 -31.939  255 255 255
6.34457 -12.7557 34.2861  255 255 255
1.9244 -30.728 38.0459  255 255 255
-36.2514 -52.1223 28.9834  255 255 255
15.7548 34.8832 -72.945  255 255 255
-71.2374 3.34887 -32.8347  255 255 255
7.88878 -42.1068 24.6371  255 255 255
-31.9491 -49.6054 25.8421  255 255 255
30.0939 14.35 -49.5077  255 255 255
31.646 13.438 -49.1122  255 255 255
34.0739 -46.9772 18.3  255 255 255
-32.11 -50.1504 26.782  255 255 255
-17.3749 -24.8076 32.9953  255 255 255
48.4492 37.8007 -28.6295  255 255 255
-72.4384 27.8004 -45.4559  255 255 255
-51.1865 33.1431 -51.2426  255 255 255
-72.7369 7.80262 -36.815  255 255 255
-40.6358 15.5698 -47.6316  255 255 255
-57.2431 14.6863 -44.9448  255 255 255
-61.2187 30.9886 -46.2959  255 255 255
-70.146 34.3108 -42.2807  255 255 255
-52.3599 -6.70139 -22.2623  255 255 255
-62.1931 36.3413 -39.4889  255 255 255
-69.7485 25.2896 -45.1803  255 255 255
-74.7831 7.68001 -36.8361  255 255 255
-63.0276 -10.3765 -17.2763  255 255 255
38.6699 -43.3544 13.2555  255 255 255
-6.0699 -58.4194 34.0603  255 255 255
-29.2432 -56.2327 33.3631  255 255 255
22.7961 -19.3492 23.1554  255 255 255
-37.6713 -50.0725 26.6378  255 255 255
2.5398 -12.448 35.3268  255 255 255
-68.4663 -54.8777 36.2926  255 255 255
11.8023 -11.8203 31.0087  255 255 255
-33.4544 -24.8617 9.95512  255 255 255
-14.812 -26.4099 34.6255  255 255 255
-3.84411 -41.445 30.3278  255 255 255
-23.4487 -21.892 30.2717  255 255 255
10.2006 -28.4008 34.8364  255 255 255
-4.83964 -31.4608 39.5018  255 255 255
-32.8263 -55.0294 32.1878  255 255 255
3.53737 -22.2489 34.422  255 255 255
-4.39913 -36.2233 35.8923  255 255 255
2.16687 -40.9047 30.2905  255 255 255
-6.21629 -30.5313 38.649  255 255 255
-67.0436 -54.1719 34.9264  255 255 255
6.44831 -31.9499 39.3845  255 255 255
-1.71137 -16.7922 36.1699  255 255 255
-37.9513 -57.8737 36.011  255 255 255
1.57905 -15.7085 36.1071  255 255 255
2.69835 -14.7023 35.6848  255 255 255
-23.9151 -56.8812 34.2362  255 255 255
-14.812 -26.4099 34.6255  255 255 255
11.8074 -11.8291 30.9507  255 255 255
-82.6603 -49.4524 31.75  255 255 255
25.0165 -9.55821 11.3312  255 255 255
8.34233 -35.7875 33.0135  255 255 255
6.29722 -12.6016 34.2148  255 255 255
-1.67401 -19.5849 35.8809  255 255 255
-0.856209 -13.3478 35.8831  255 255 255
0.530961 -25.0268 36.4347  255 255 255
-33.9538 -51.5446 28.3681  255 255 255
49.9297 -13.8095 -18.1842  255 255 255
2.87941 -18.2198 35.6374  255 255 255
-30.2761 -55.6023 32.2525  255 255 255
3.70752 -14.4952 35.538  255 255 255
10.7244 -14.7069 32.4564  255 255 255
-33.0818 -57.5648 34.9865  255 255 255
-27.2636 -54.9014 31.9322  255 255 255
3.3755 -12.8784 35.265  255 255 255
-38.2 -52.2859 29.4551  255 255 255
-4.40072 -16.2969 35.9006  255 255 255
-15.0934 -28.4677 37.2357  255 255 255
-6.45717 -29.525 37.4096  255 255 255
-4.72223 -31.6618 39.6192  255 255 255
55.8562 -44.0148 13.946  255 255 255
-28.8204 -56.4424 33.4241  255 255 255
-22.7747 -56.7868 33.3593  255 255 255
12.2465 -19.4769 30.9252  255 255 255
8.85037 -25.8375 34.2196  255 255 255
-75.6499 -45.1689 23.1538  255 255 255
12.7331 -31.0742 33.9936  255 255 255
8.18997 -37.3004 31.4478  255 255 255
50.1536 -40.3252 9.82745  255 255 255
-30.055 -56.2666 33.1575  255 255 255
-19.4049 -58.1399 34.8384  255 255 255
54.1677 -17.1614 -10.2302  255 255 255
14.7025 -23.6969 31.0931  255 255 255
12.934 -28.9718 34.9382  255 255 255
-4.57509 -41.5186 30.4672  255 255 255
-27.9463 -54.7585 31.525  255 255 255
50.202 -40.5876 10.8343  255 255 255
6.85359 -19.6353 34.2446  255 255 255
6.59884 -19.4669 34.3586  255 255 255
6.84341 -20.2859 33.9971  255 255 255
10.2701 -32.963 34.0878  255 255 255
-29.4914 -56.4554 33.5817  255 255 255
-26.4216 -53.8893 30.6468  255 255 255
6.43401 -22.266 33.6612  255 255 255
-4.64711 -31.338 39.4675  255 255 255
-20.5976 -55.6291 31.8621  255 255 255
-12.761 -18.4882 32.395  255 255 255
-6.03247 -18.1714 35.5528  255 255 255
12.0438 -12.9851 30.9353  255 255 255
15.5706 -28.3052 34.0552  255 255 255
1.61487 -32.2945 37.7973  255 255 255
-26.5341 -56.8213 33.6843  255 255 255
-22.7797 -57.3425 33.9346  255 255 255
-22.7806 -57.3366 33.9306  255 255 255
-44.9936 -31.759 6.60013  255 255 255
8.40731 -29.5732 36.2253  255 255 255
1.92525 -30.7156 38.0715  255 255 255
-32.8656 -49.2185 25.753  255 255 255
4.86894 -42.1276 29.3904  255 255 255
53.1123 -40.5678 10.2565  255 255 255
-27.6882 -53.3713 29.9262  255 255 255
11.2093 -11.9326 31.3571  255 255 255
19.5161 -20.6415 26.7667  255 255 255
0.205355 -23.7165 35.0435  255 255 255
9.33542 -29.4245 36.14  255 255 255
12.5823 -38.7455 27.4999  255 255 255
6.75571 -38.9263 31.6908  255 255 255
13.0982 -39.1787 26.5775  255 255 255
1.77848 -40.412 30.8794  255 255 255
7.21707 -40.6095 29.4643  255 255 255
49.924 -41.1013 10.2729  255 255 255
-21.8938 -55.8022 32.3354  255 255 255
14.716 -11.9347 28.2374  255 255 255
14.6725 -11.9307 28.5208  255 255 255
15.7758 -11.9508 26.9409  255 255 255
6.79844 -32.4277 38.5389  255 255 255
-26.6835 -56.1568 32.9721  255 255 255
-23.6071 -57.1718 33.7408  255 255 255
-7.88396 -30.2466 38.2444  255 255 255
-33.6181 -52.2421 29.0273  255 255 255
20.7992 -20.4353 25.1119  255 255 255
-23.2781 -56.7598 33.4645  255 255 255
-5.07055 -30.8808 39.0053  255 255 255
15.3823 -33.9209 29.9412  255 255 255
20.8831 -32.0159 23.2705  255 255 255
17.379 -31.9004 29.7728  255 255 255
-25.316 -55.1047 31.5494  255 255 255
41.4161 -29.9962 -1.90129  255 255 255
-35.6547 -51.8145 28.5683  255 255 255
6.63864 -57.9828 32.42  255 255 255
36.8087 -42.7412 13.6768  255 255 255
43.0836 -48.5123 20.556  255 255 255
5.18941 -15.4396 35.189  255 255 255
-22.7829 -55.3731 31.9078  255 255 255
50.0613 -10.8202 -13.4764  255 255 255
0.681282 -17.9343 36.035  255 255 255
-26.6054 -54.9741 31.6736  255 255 255
58.7568 -25.5574 -5.61612  255 255 255
3.75786 -15.3555 35.4753  255 255 255
34.2438 71.8541 -83.4945  255 255 255
42.8998 75.1093 -87.0122  255 255 255
24.0472 59.7664 -86.3337  255 255 255
0.60519 61.4644 -68.3915  255 255 255
23.2324 58.5785 -86.6591  255 255 255
43.6359 60.9953 -99.7701  255 255 255
50.2127 67.9864 -98.4282  255 255 255
35.3826 73.7525 -82.4493  255 255 255
25.6885 71.7892 -77.4703  255 255 255
23.2755 57.3373 -87.0818  255 255 255
-7.53528 66.3373 -56.2678  255 255 255
48.6243 61.8687 -103.193  255 255 255
64.3078 72.3276 -105.598  255 255 255
53.5377 70.2354 -98.9245  255 255 255
60.6827 64.8492 -109.046  255 255 255
6.19375 60.7851 -71.9776  255 255 255
57.0688 62.7818 -106.332  255 255 255
8.28305 54.6306 -77.1298  255 255 255
22.6875 60.5015 -85.1861  255 255 255
2.70552 53.5833 -75.0641  255 255 255
60.9292 64.4625 -109.459  255 255 255
46.8793 61.2726 -101.845  255 255 255
27.4903 66.8366 -76.3786  255 255 255
27.7469 67.5258 -78.3826  255 255 255
10.949 62.2408 -73.4905  255 255 255
42.6809 50.1606 -92.2405  255 255 255
7.79438 62.6938 -70.5774  255 255 255
61.1122 66.1554 -111.791  255 255 255
60.098 66.1663 -111.426  255 255 255
12.7013 65.5924 -71.8511  255 255 255
-26.9977 52.7456 -53.2025  255 255 255
-13.0775 54.1038 -62.4634  255 255 255
-39.8871 52.9635 -42.7204  255 255 255
-17.6087 53.9335 -59.3138  255 255 255
-38.7143 44.4076 -51.0027  255 255 255
-17.2749 61.6507 -53.0456  255 255 255
-50.609 47.595 -39.3321  255 255 255
-5.21029 -9.23866 34.3729  255 255 255
-3.43366 -10.3202 35.0722  255 255 255
-9.8326 -0.0100133 25.3073  255 255 255
-22.365 -6.94778 17.5074  255 255 255
-1.95758 -14.1911 36.0564  255 255 255
-10.0485 -6.39002 31.0411  255 255 255
-13.5613 -3.2642 25.9542  255 255 255
-12.5254 -3.89273 27.7281  255 255 255
-15.6062 -26.8912 35.2594  255 255 255
-23.4926 -21.5784 29.9039  255 255 255
-7.25806 -29.0847 37.0218  255 255 255
-2.50211 -30.3678 38.0061  255 255 255
-7.80317 -2.41761 27.1424  255 255 255
43.9339 67.1404 -94.2285  255 255 255
-12.0026 56.7095 -61.3466  255 255 255
-36.6444 5.04642 -35.817  255 255 255
-10.2543 -19.0171 33.692  255 255 255
12.6999 -11.4754 29.9495  255 255 255
5.99542 49.9635 -80.5621  255 255 255
2.77029 58.5713 -70.1634  255 255 255
44.0969 68.0066 -93.836  255 255 255
53.4618 -19.2995 -13.2243  255 255 255
45.522 27.203 -42.1122  255 255 255
-81.1328 18.0858 -43.1264  255 255 255
-55.6712 -49.9282 28.3445  255 255 255
-61.7359 -52.0404 31.7694  255 255 255
53.7037 -20.1901 -13.0013  255 255 255
-6.18053 65.8771 -57.5802  255 255 255
48.5351 34.3269 -30.2267  255 255 255
-55.6712 -49.9282 28.3445  255 255 255
17.162 67.1387 -74.2234  255 255 255
-51.2863 -3.24797 -25.5692  255 255 255
-17.5526 55.1444 -58.3768  255 255 255
40.0815 77.7815 -83.6275  255 255 255
48.5922 -0.396673 -12.2976  255 255 255
-51.7941 -3.36905 -24.2863  255 255 255
-24.7517 -56.0952 32.7806  255 255 255
-45.0098 -27.1148 1.27741  255 255 255
-15.0302 -11.0949 29.9377  255 255 255
-19.7317 -24.675 33.0954  255 255 255
-23.9973 -32.8032 23.437  255 255 255
-57.4374 -17.1163 -9.27314  255 255 255
-62.3259 -7.24182 -20.7275  255 255 255
22.1674 20.9198 -57.3582  255 255 255
49.7821 -14.3942 -18.5366  255 255 255
-45.1834 -6.78003 -21.6918  255 255 255
45.567 27.2496 -42.3494  255 255 255
6.81395 -29.5184 36.2725  255 255 255
-21.6375 -22.4573 30.6327  255 255 255
-26.2974 -52.9277 29.484  255 255 255
-56.2549 -21.7152 -5.05572  255 255 255
-31.6258 -50.9997 27.6005  255 255 255
-19.8963 -59.3022 36.1435  255 255 255
-24.5857 -55.7288 32.4832  255 255 255
-33.6448 -51.7452 28.6457  255 255 255
-29.5131 -53.1901 29.7804  255 255 255
-27.8474 -53.6401 30.291  255 255 255
46.317 -48.7164 19.0267  255 255 255
-44.864 40.2526 -50.0188  255 255 255
0.737184 -32.33 37.9186  255 255 255
-1.9402 -18.947 35.9872  255 255 255
-30.8524 57.6837 -45.603  255 255 255
-15.8892 -15.6198 30.0204  255 255 255
32.1823 72.0582 -81.7452  255 255 255
-52.8983 -6.80183 -21.5172  255 255 255
4.16961 -6.23797 32.0693  255 255 255
-6.87306 -5.89938 32.2365  255 255 255
-45.6703 -26.8462 1.10823  255 255 255
23.2539 -18.1944 21.9782  255 255 255
41.9144 62.487 -97.2085  255 255 255
-15.8656 -14.3824 29.858  255 255 255
-60.4911 -3.36303 -24.3713  255 255 255
49.0208 7.19427 -5.47253  255 255 255
33.5211 70.9324 -83.5393  255 255 255
50.1424 21.8895 -34.4828  255 255 255
40.4701 -31.8431 0.274613  255 255 255
48.2318 -12.5274 -20.8315  255 255 255
-2.42834 -11.9242 35.6909  255 255 255
-40.4253 -37.757 12.9213  255 255 255
2.51248 -47.3466 30.7243  255 255 255
53.7609 -20.1962 -13.0432  255 255 255
14.299 65.3416 -74.2913  255 255 255
3.64772 -8.31417 33.7185  255 255 255
49.6977 23.7371 -34.4093  255 255 255
0.395715 -24.5404 35.8466  255 255 255
2.40367 50.2515 -78.0006  255 255 255
-10.3181 -0.595811 26.0306  255 255 255
49.7538 -5.68127 -13.0491  255 255 255
-77.7752 11.5381 -41.0312  255 255 255
-47.9977 41.5771 -47.0347  255 255 255
-33.8931 24.4546 -57.7649  255 255 255
48.092 35.0339 -75.7906  255 255 255
-47.4861 30.0967 -59.0062  255 255 255
0.536679 60.0426 -67.8651  255 255 255
49.2053 67.7588 -97.9366  255 255 255
51.0589 66.3671 -100.155  255 255 255
-1.95898 58.9627 -67.121  255 255 255
-33.9034 47.6651 -52.3673  255 255 255
-13.3184 51.6685 -64.8653  255 255 255
26.9725 58.3407 -90.3854  255 255 255
-33.2743 34.3692 -65.1262  255 255 255
-48.3204 29.2286 -59.7401  255 255 255
25.8192 54.9567 -91.5371  255 255 255
-53.9727 39.4782 -43.9651  255 255 255
28.8024 61.7965 -88.2767  255 255 255
26.9734 58.3411 -90.3753  255 255 255
-7.30884 49.1171 -71.4619  255 255 255
-35.393 16.8674 -49.3852  255 255 255
19.4603 57.4067 -85.2733  255 255 255
-27.1853 48.3356 -56.1713  255 255 255
45.274 60.8942 -100.914  255 255 255
-5.13152 59.0378 -64.4598  255 255 255
24.7258 54.234 -91.3017  255 255 255
3.82775 53.3593 -76.0457  255 255 255
-54.1589 41.4822 -41.5912  255 255 255
-15.4326 54.7326 -60.4627  255 255 255
-22.2542 54.6039 -55.019  255 255 255
-15.5133 53.7761 -61.1  255 255 255
-13.2504 57.5688 -59.4386  255 255 255
28.8718 62.6309 -86.8513  255 255 255
49.9255 62.3646 -103.547  255 255 255
45.2777 64.3822 -97.8374  255 255 255
-26.4349 51.9423 -54.3863  255 255 255
-17.5989 53.9432 -59.3306  255 255 255
-24.4008 51.6102 -56.1422  255 255 255
-29.6039 45.4888 -57.6691  255 255 255
-37.151 33.1819 -63.3975  255 255 255
-66.2459 42.5879 -31.3042  255 255 255
35.1372 74.6007 -81.7478  255 255 255
18.6019 50.0595 -89.4408  255 255 255
50.1339 62.9284 -102.87  255 255 255
1.01805 59.8514 -68.463  255 255 255
48.9825 60.5418 -103.797  255 255 255
13.513 -17.3556 30.2221  255 255 255
-24.0694 53.9894 -54.1116  255 255 255
49.932 -7.78878 -14.0224  255 255 255
48.0178 -5.91466 -17.2134  255 255 255
52.5266 -18.6281 -15.0512  255 255 255
23.8071 -18.8517 22.5596  255 255 255
-27.5008 -14.5696 22.0154  255 255 255
21.4111 -20.8899 25.1188  255 255 255
47.2144 -2.59461 -16.9459  255 255 255
-1.77662 -20.2547 35.6697  255 255 255
52.3152 -16.9535 -14.1838  255 255 255
-58.3674 -13.3282 -13.8156  255 255 255
-21.7175 -4.7708 14.7486  255 255 255
-26.1889 -10.5463 17.0689  255 255 255
10.5331 -2.79144 25.8071  255 255 255
-6.16905 -9.1829 33.6962  255 255 255
-4.65702 -30.9381 39.0338  255 255 255
12.071 -4.42765 26.1065  255 255 255
22.1346 -19.3357 23.2962  255 255 255
12.0856 -23.0068 32.665  255 255 255
11.7658 -6.8137 28.7203  255 255 255
12.3255 -21.8651 31.5232  255 255 255
6.49971 -31.5621 38.4712  255 255 255
-18.6687 -25.0953 33.4142  255 255 255
10.5795 -23.3363 33.2531  255 255 255
-6.55856 -7.11791 32.875  255 255 255
7.22592 -17.8137 34.2323  255 255 255
-27.8221 -52.1083 28.53  255 255 255
7.98694 -17.8688 33.8772  255 255 255
-22.6661 -8.01658 18.8246  255 255 255
3.95302 -9.62401 34.2085  255 255 255
18.6727 -25.5435 30.5994  255 255 255
6.98561 -24.4093 35.0153  255 255 255
12.116 -7.40889 28.6638  255 255 255
19.6435 17.6326 -53.1625  255 255 255
19.0352 -17.7361 26.1934  255 255 255
-7.36299 -23.5821 35.4001  255 255 255
-46.8858 12.1407 -44.4043  255 255 255
10.5842 -1.99833 24.9686  255 255 255
15.1466 -11.4176 27.6297  255 255 255
-54.8141 -27.5166 2.24915  255 255 255
2.81678 -7.59649 33.4372  255 255 255
0.840046 -30.4053 37.7641  255 255 255
5.07843 -10.2377 33.8932  255 255 255
-5.46881 -28.8622 36.6824  255 255 255
3.01369 -11.5174 35.0495  255 255 255
-41.0302 16.0599 -47.6786  255 255 255
5.46898 -6.6188 32.1438  255 255 255
11.3415 -8.85164 29.8709  255 255 255
12.8657 -22.0341 31.844  255 255 255
12.244 -9.04343 29.3151  255 255 255
-15.5913 -26.8992 35.3492  255 255 255
-6.46631 -29.509 37.5492  255 255 255
-22.5938 -31.3447 26.4565  255 255 255
-24.4925 -18.9929 27.0922  255 255 255
5.1719 -24.8591 35.8556  255 255 255
8.33206 -10.7811 32.5847  255 255 255
12.507 -4.86936 25.996  255 255 255
0.973877 -23.8081 35.0274  255 255 255
8.29437 -6.89403 30.6897  255 255 255
10.0888 -8.61303 30.8285  255 255 255
20.7939 -21.1747 25.4114  255 255 255
9.24757 -12.849 32.7523  255 255 255
14.8345 -17.0156 29.0092  255 255 255
8.99987 -26.136 33.9926  255 255 255
21.2365 -20.0018 24.2615  255 255 255
-2.50533 -29.443 37.0697  255 255 255
10.6439 -23.0614 32.9629  255 255 255
6.51954 -22.2076 33.526  255 255 255
-4.23604 -23.9876 35.7084  255 255 255
23.386 -22.4939 26.0835  255 255 255
7.20486 -11.41 33.4291  255 255 255
-27.3947 -51.7704 28.3378  255 255 255
6.54304 -24.4702 34.9878  255 255 255
-13.3865 -35.0753 31.9381  255 255 255
13.9494 -14.08 29.6079  255 255 255
6.82766 -23.8673 34.3917  255 255 255
6.49971 -31.5621 38.4712  255 255 255
12.8547 -3.58443 24.2199  255 255 255
14.8516 -17.0052 28.8777  255 255 255
-7.49261 -29.1101 36.971  255 255 255
-23.867 -23.0725 31.5951  255 255 255
-27.458 -51.9867 28.4225  255 255 255
14.4649 -28.0755 33.8513  255 255 255
-3.31726 -29.4547 37.2222  255 255 255
-1.68401 -24.6719 36.1957  255 255 255
22.8096 -21.3407 25.3248  255 255 255
13.6668 -6.54923 26.5042  255 255 255
-4.23604 -23.9876 35.7084  255 255 255
19.965 -14.62 22.5537  255 255 255
15.0824 -15.6196 28.5431  255 255 255
-22.5279 -22.3742 30.4792  255 255 255
9.5033 -0.403006 23.2335  255 255 255
-28.2762 -52.1903 28.6195  255 255 255
18.254 -17.7788 26.2911  255 255 255
14.8715 -6.05395 24.2285  255 255 255
15.6747 -8.26936 24.9174  255 255 255
2.10467 -14.5577 35.8313  255 255 255
12.1943 -5.70552 26.9978  255 255 255
19.6391 -6.18246 11.8759  255 255 255
0.535286 -25.0234 36.4314  255 255 255
7.08504 -29.9649 36.7654  255 255 255
24.2223 -18.4725 22.1178  255 255 255
-18.1425 -24.5462 32.7673  255 255 255
-12.2206 -21.8017 33.8583  255 255 255
21.2365 -20.0018 24.2615  255 255 255
-2.37004 -29.6765 37.3021  255 255 255
-48.9443 -10.1511 -17.6517  255 255 255
14.5912 -11.2643 28.3895  255 255 255
15.3343 -13.7144 28.1059  255 255 255
23.0828 -23.9807 28.1201  255 255 255
10.5552 -29.5235 35.85  255 255 255
-4.8236 -29.788 37.4701  255 255 255
-23.9297 -22.441 31.0124  255 255 255
8.65879 -7.32531 31.149  255 255 255
13.1638 -9.16378 28.7683  255 255 255
12.116 -7.40889 28.6638  255 255 255
5.75114 -29.425 36.0421  255 255 255
18.1198 -18.0749 26.7274  255 255 255
8.65127 -7.32094 31.2024  255 255 255
23.0312 -20.0949 24.0107  255 255 255
15.7571 -26.9912 32.6367  255 255 255
-2.72394 -33.7877 37.0766  255 255 255
2.44586 -32.3906 37.7309  255 255 255
-5.53977 -18.3497 35.6483  255 255 255
-12.3201 -19.7355 32.5004  255 255 255
12.9817 -15.5838 30.7846  255 255 255
6.05507 -14.4666 34.8667  255 255 255
47.0648 8.92239 -10.0211  255 255 255
-5.72764 -23.3166 34.7401  255 255 255
17.0872 -26.3469 31.7971  255 255 255
-69.5724 -44.9153 23.5534  255 255 255
23.8519 -34.7455 19.0247  255 255 255
16.0213 -28.9932 34.7916  255 255 255
-9.33641 -23.0267 35.0478  255 255 255
50.6633 -7.90856 -12.4855  255 255 255
8.5321 -3.56621 28.4076  255 255 255
16.0393 -27.6386 33.3284  255 255 255
24.792 -14.9104 17.9417  255 255 255
-7.59637 -22.6016 34.31  255 255 255
18.8026 -17.6726 25.8874  255 255 255
24.7021 -8.66214 10.4209  255 255 255
2.82652 -29.4678 36.4605  255 255 255
18.5109 -35.096 24.869  255 255 255
2.0772 -24.7642 35.9274  255 255 255
-17.9033 -25.4432 33.7137  255 255 255
-64.4443 -9.77116 -17.7655  255 255 255
15.2475 -10.6256 27.2987  255 255 255
12.5531 -33.5576 31.8537  255 255 255
6.54058 -12.2579 33.8971  255 255 255
4.7442 -19.7032 34.8456  255 255 255
-21.8608 -8.42955 19.1393  255 255 255
-30.5001 20.2651 -53.2673  255 255 255
10.6713 -8.87373 30.2917  255 255 255
-1.43983 -34.3476 36.1046  255 255 255
-6.65307 -30.1818 38.169  255 255 255
53.4298 -15.1567 -11.0397  255 255 255
48.4145 -12.8086 -19.3449  255 255 255
10.1316 -22.3254 32.2889  255 255 255
22.869 -23.5082 27.734  255 255 255
10.9385 -13.5134 32.1675  255 255 255
47.053 8.91517 -9.93938  255 255 255
16.03 -20.2817 29.5499  255 255 255
56.3969 -15.3611 -4.52343  255 255 255
-38.0828 -51.8769 28.8723  255 255 255
13.9912 -13.0706 29.4417  255 255 255
10.3098 -32.5938 34.6836  255 255 255
-16.845 -16.0059 28.8647  255 255 255
14.6536 -16.5051 29.0739  255 255 255
10.8962 -5.35479 28.225  255 255 255
23.458 -19.3443 23.2135  255 255 255
10.8962 -5.35479 28.225  255 255 255
-33.3529 -48.7045 24.8195  255 255 255
-26.1435 -5.7924 11.8469  255 255 255
-31.6485 22.0713 -55.2772  255 255 255
-10.1468 -22.7586 34.782  255 255 255
11.1626 -10.2209 30.8479  255 255 255
3.9513 -13.9234 34.7651  255 255 255
2.70253 -13.9472 35.1405  255 255 255
9.48193 -9.88808 31.523  255 255 255
-1.16546 -29.6202 37.2246  255 255 255
22.286 -31.9187 21.0949  255 255 255
23.4679 -18.4711 22.2338  255 255 255
15.169 -15.2276 28.2286  255 255 255
-65.3781 -8.56327 -19.8551  255 255 255
-11.2441 -22.0958 34.2245  255 255 255
23.2982 -17.8421 21.5429  255 255 255
-0.279664 -30.5082 38.0593  255 255 255
16.6273 -25.1721 30.6368  255 255 255
7.53722 -13.9728 33.8325  255 255 255
7.0074 -17.0869 34.4233  255 255 255
26.5498 -16.0143 18.3403  255 255 255
15.379 -15.7345 28.2983  255 255 255
22.7385 -23.3379 27.5604  255 255 255
-4.31274 -7.71243 33.8525  255 255 255
7.1929 -23.7821 34.0641  255 255 255
6.13397 -45.6644 30.623  255 255 255
-5.9058 -24.0036 35.9477  255 255 255
-9.18614 -29.2565 37.3856  255 255 255
-3.27903 -13.1501 35.7544  255 255 255
13.4398 -15.5265 30.285  255 255 255
6.32038 -23.8884 34.5372  255 255 255
-10.6116 -26.37 34.7049  255 255 255
10.6713 -8.87373 30.2917  255 255 255
-22.6347 -6.58573 16.9767  255 255 255
6.08521 -24.0454 34.9245  255 255 255
20.9221 19.5776 -56.0014  255 255 255
50.0473 1.57329 -7.44181  255 255 255
49.9962 1.56043 -7.29101  255 255 255
3.96724 2.69298 21.8617  255 255 255
3.33926 2.52309 21.6328  255 255 255
-0.0591775 2.62929 20.9065  255 255 255
-0.0522714 2.20329 20.1189  255 255 255
48.8053 0.0123582 -11.8557  255 255 255
-1.01059 -8.65653 34.6244  255 255 255
54.2235 -18.8006 -11.2  255 255 255
6.48425 -13.588 34.322  255 255 255
2.49979 -14.55 35.7003  255 255 255
-66.0289 -8.90354 -18.5308  255 255 255
3.80912 -27.0919 35.8864  255 255 255
-17.5436 -25.3522 33.672  255 255 255
41.5749 -44.5973 14.9344  255 255 255
41.433 -49.2104 23.1113  255 255 255
2.65535 2.72817 21.4187  255 255 255
5.39688 1.54278 22.2155  255 255 255
-2.9425 1.26954 23.7806  255 255 255
-5.12701 1.50052 23.0342  255 255 255
21.2485 -3.21165 4.21542  255 255 255
24.853 -9.15395 10.9323  255 255 255
5.49184 -8.78639 33.2481  255 255 255
54.5713 -13.5157 -7.19356  255 255 255
48.5311 -12.4472 -20.3329  255 255 255
-43.3838 -6.90983 -21.6172  255 255 255
54.7468 -20.1057 -11.3752  255 255 255
7.95724 -24.2117 34.6472  255 255 255
-12.8748 -26.7087 34.8491  255 255 255
47.6492 -40.1943 9.26108  255 255 255
35.7279 -51.1914 23.7587  255 255 255
-34.349 -48.9445 25.2245  255 255 255
-8.50106 -2.49582 28.9931  255 255 255
54.9975 -18.9692 -9.78461  255 255 255
-35.3891 -48.8548 25.1845  255 255 255
-33.3861 12.291 -45.3586  255 255 255
55.2748 -28.7489 -3.93443  255 255 255
45.1628 -40.5532 10.0335  255 255 255
51.2756 -10.7981 -12.5368  255 255 255
-15.8028 -8.24553 28.1075  255 255 255
-10.7608 -10.724 32.691  255 255 255
2.41143 -16.3543 35.9982  255 255 255
-4.57855 1.2888 22.9507  255 255 255
3.84116 -21.0228 34.7173  255 255 255
12.6855 -23.7736 32.7232  255 255 255
-30.3826 -50.5396 27.1563  255 255 255
-14.9839 -13.6515 30.5357  255 255 255
8.74319 -15.8694 33.6398  255 255 255
-62.7518 -11.3949 -15.9535  255 255 255
-79.0648 30.4834 -31.6066  255 255 255
-71.8596 32.1618 -35.7755  255 255 255
-54.8947 -22.7342 -2.72919  255 255 255
-42.3089 -5.04333 -24.2361  255 255 255
-7.1934 -25.3511 36.2719  255 255 255
57.343 -24.9688 -8.66231  255 255 255
-11.0271 -19.8149 33.3206  255 255 255
-5.69475 -18.9378 35.7865  255 255 255
50.7046 1.1026 -6.23977  255 255 255
-8.40922 -21.1291 34.2219  255 255 255
-8.95538 -15.4011 34.5644  255 255 255
-11.947 -20.3853 32.6296  255 255 255
52.6878 -10.9439 -8.98033  255 255 255
47.9937 12.1518 -6.06474  255 255 255
51.5103 18.8825 -33.9734  255 255 255
53.0921 -13.3608 -10.6364  255 255 255
-6.34984 -11.2413 34.6023  255 255 255
54.0622 -13.7783 -8.31614  255 255 255
-16.8281 54.1895 -59.875  255 255 255
-9.78204 27.3616 -62.3364  255 255 255
-21.207 9.18753 -41.2865  255 255 255
-34.4176 9.8614 -41.1539  255 255 255
-33.3943 8.41809 -38.1611  255 255 255
-3.64516 -7.61965 33.9011  255 255 255
-27.0748 53.9154 -53.0211  255 255 255
33.6457 67.3329 -86.7071  255 255 255
0.920026 -8.12911 34.1416  255 255 255
-21.4309 10.6862 -42.8043  255 255 255
-40.782 37.3929 -56.1221  255 255 255
-40.9646 15.3292 -47.4443  255 255 255
-16.2246 -15.7587 29.5211  255 255 255
-5.45743 -16.8101 35.4997  255 255 255
-10.4023 45.4746 -72.4102  255 255 255
0.0618218 -11.9444 35.6233  255 255 255
-10.4674 -8.97371 32.3428  255 255 255
-31.8754 9.09307 -39.946  255 255 255
-14.4081 -16.8029 31.3337  255 255 255
-74.4056 11.3314 -40.5076  255 255 255
-105.462 -11.2288 -12.1557  255 255 255
-106.195 -12.1602 -12.3955  255 255 255
-69.6781 4.0989 -33.7354  255 255 255
0.542579 -14.2735 35.9872  255 255 255
-9.2893 -2.03753 27.8812  255 255 255
-19.1297 21.3946 -55.1526  255 255 255
-22.583 -1.47525 6.52028  255 255 255
-5.16429 -14.5651 35.6772  255 255 255
-6.21318 -13.465 35.2163  255 255 255
-7.56552 -18.2503 35.0395  255 255 255
-5.45382 -16.7993 35.7664  255 255 255
-45.5988 40.0644 -49.7128  255 255 255
-10.1103 -16.9115 34.043  255 255 255
-38.3794 14.0539 -46.2491  255 255 255
-38.3328 14.0282 -46.2187  255 255 255
3.14898 -14.9927 35.7097  255 255 255
4.74947 -16.5022 35.2675  255 255 255
-2.72223 -20.2678 35.7981  255 255 255
26.3196 58.3401 -89.5005  255 255 255
-28.6302 -9.79634 16.5321  255 255 255
-13.5422 -9.21684 30.4707  255 255 255
3.5949 -22.5048 34.4035  255 255 255
51.1436 65.936 -100.654  255 255 255
-8.72986 -21.8645 33.8434  255 255 255
-14.3579 -7.16573 28.7269  255 255 255
2.75377 -17.3633 36.1386  255 255 255
4.11336 -19.9381 34.8577  255 255 255
-13.4565 -19.4094 31.8548  255 255 255
56.8874 -17.1106 -4.27614  255 255 255
-21.5943 53.642 -56.3669  255 255 255
-22.4676 -8.59678 19.2979  255 255 255
-6.44754 -23.5953 35.4085  255 255 255
-0.672904 -7.80952 34.006  255 255 255
44.2155 -50.0165 20.7573  255 255 255
-24.4318 53.4526 -54.2836  255 255 255
-1.27134 -7.60279 33.9775  255 255 255
7.30458 -15.4996 34.0684  255 255 255
13.4404 -21.8765 31.4249  255 255 255
-29.6389 37.5624 -64.6676  255 255 255
-29.7473 26.1393 -59.9393  255 255 255
-4.42973 -17.3738 35.8407  255 255 255
7.23185 -15.0453 34.1094  255 255 255
3.0045 -17.8564 35.6358  255 255 255
49.5278 0.57528 -9.54551  255 255 255
52.4934 -5.45865 -6.71087  255 255 255
56.5928 -15.5129 -4.17518  255 255 255
-9.21165 -18.3083 34.4083  255 255 255
-6.82865 -22.8631 34.6027  255 255 255
-17.349 -24.7981 33.2224  255 255 255
-3.01197 -24.145 35.7594  255 255 255
50.2792 -2.55211 -9.86111  255 255 255
7.11269 -20.4878 33.8455  255 255 255
-22.9261 -23.3481 31.8409  255 255 255
47.0524 8.31684 -9.34636  255 255 255
5.69613 -19.0918 34.9159  255 255 255
-8.68073 -7.94789 32.4976  255 255 255
49.3475 6.6189 -5.98546  255 255 255
2.82237 -30.9827 38.1636  255 255 255
-73.2776 29.5326 -43.9391  255 255 255
-85.5689 32.0476 -25.2578  255 255 255
-85.4337 32.1111 -27.2464  255 255 255
-75.703 29.3621 -42.3448  255 255 255
-29.4797 -9.83306 16.5475  255 255 255
19.4006 33.9092 -72.2688  255 255 255
18.1522 32.3155 -70.07  255 255 255
25.4334 10.1673 -45.1968  255 255 255
8.3265 -9.29402 32.0411  255 255 255
8.33601 -9.29381 31.96  255 255 255
10.9728 -10.5622 31.1009  255 255 255
8.74469 -12.8877 33.1114  255 255 255
7.09812 -14.3299 34.1076  255 255 255
13.05 -15.9444 30.6198  255 255 255
5.4452 -17.513 34.9885  255 255 255
4.74396 -20.2119 34.8026  255 255 255
24.1182 -16.8824 20.2961  255 255 255
-16.5941 -26.1857 34.4273  255 255 255
12.6069 -23.1653 32.8872  255 255 255
17.0535 -25.534 30.829  255 255 255
-27.8393 -55.9806 32.6483  255 255 255
-28.7521 -57.0784 34.0336  255 255 255
48.3553 20.2523 -40.0426  255 255 255
38.8464 -34.6547 3.55149  255 255 255
-0.547966 -7.77496 33.9145  255 255 255
20.5167 -22.1607 26.4003  255 255 255
22.9607 -23.0198 27.7015  255 255 255
5.4469 -9.98049 33.7667  255 255 255
5.63191 -10.9113 34.0387  255 255 255
4.71568 -12.2378 34.3723  255 255 255
3.75368 -7.00013 32.8083  255 255 255
13.6082 -10.3493 29.0232  255 255 255
-1.97922 -20.027 35.71  255 255 255
-3.96599 -7.69099 33.9362  255 255 255
6.68959 -15.4372 34.474  255 255 255
5.313 -12.5277 34.6645  255 255 255
10.4717 -12.7622 31.9486  255 255 255
0.412643 -15.1503 36.0966  255 255 255
-1.75216 -18.3371 36.0241  255 255 255
-7.35965 -22.3347 34.2182  255 255 255
-31.3667 19.0274 -51.9648  255 255 255
-6.74706 -17.5091 35.3452  255 255 255
-74.0413 4.39419 -32.7895  255 255 255
-14.7103 -27.1802 35.6214  255 255 255
-12.712 -27.862 35.9668  255 255 255
-26.0959 -17.9221 26.2645  255 255 255
-51.6019 -6.59661 -21.5185  255 255 255
-73.8928 -57.5257 40.8495  255 255 255
-45.1384 -10.7861 -17.2139  255 255 255
-71.4555 4.47314 -33.5369  255 255 255
-51.76 -5.97704 -22.2946  255 255 255
-74.7734 -51.6408 30.6787  255 255 255
10.6671 -10.0509 31.1332  255 255 255
0.127485 61.0457 -66.6105  255 255 255
4.63505 -17.2629 35.1681  255 255 255
-81.1039 23.0446 -38.0709  255 255 255
0.488197 61.2645 -66.3978  255 255 255
14.7839 -27.4325 33.1028  255 255 255
-4.42688 -30.4447 38.2747  255 255 255
-43.5726 47.9625 -44.4236  255 255 255
-28.0878 15.333 -47.3831  255 255 255
-1.9858 -20.0141 35.7488  255 255 255
-18.7596 -56.6338 33.0418  255 255 255
-3.15997 64.0699 -60.6731  255 255 255
-17.5371 -22.1153 31.7297  255 255 255
-5.77238 -10.4633 34.7745  255 255 255
51.979 -17.1769 -15.2969  255 255 255
-34.0947 -52.0249 28.7098  255 255 255
-19.2924 -59.4209 36.7178  255 255 255
28.5609 58.3351 -91.0974  255 255 255
26.2543 57.2742 -90.3576  255 255 255
-23.7587 53.8473 -54.2955  255 255 255
-27.8267 52.7723 -52.7203  255 255 255
47.8732 22.5788 -39.0745  255 255 255
4.40174 -14.0218 35.3545  255 255 255
-5.89018 -18.4111 35.5776  255 255 255
-20.6038 -58.5926 35.2925  255 255 255
1.01952 59.8497 -68.4658  255 255 255
-15.8563 55.4285 -59.179  255 255 255
-15.8548 55.4946 -59.3969  255 255 255
21.2979 53.6934 -89.9526  255 255 255
43.3439 36.6323 -77.014  255 255 255
22.7324 -22.9551 27.2395  255 255 255
-11.9009 -21.7867 33.9403  255 255 255
0.187157 22.8908 -58.7288  255 255 255
-4.78719 16.4964 -50.5002  255 255 255
-15.5764 -13.927 30.0521  255 255 255
-17.2801 -18.8094 30.8924  255 255 255
-77.1951 -45.231 24.1293  255 255 255
5.05064 55.4179 -75.5461  255 255 255
-23.3178 55.1188 -54.1232  255 255 255
-46.7196 42.4068 -46.8369  255 255 255
50.3055 -38.8641 7.8123  255 255 255
49.3702 -38.1914 7.00811  255 255 255
-43.7263 48.149 -43.9127  255 255 255
-53.8296 -3.56434 -24.7145  255 255 255
6.46955 -14.1458 34.4464  255 255 255
-60.6803 -12.2962 -14.7119  255 255 255
20.6463 46.9284 -86.6248  255 255 255
46.8222 23.9179 -41.2722  255 255 255
-3.53772 -5.87443 32.858  255 255 255
-12.0585 -4.55505 28.5632  255 255 255
-2.11449 -8.04164 34.2453  255 255 255
-2.11449 -8.04164 34.2453  255 255 255
0.465584 -8.80272 34.5202  255 255 255
11.8824 -13.9393 31.3586  255 255 255
51.4859 -16.2094 -16.0027  255 255 255
4.02471 -13.1186 35.0546  255 255 255
51.9772 -17.1774 -15.2165  255 255 255
-2.27893 -13.0572 35.8737  255 255 255
13.4348 -16.1523 30.3177  255 255 255
48.8408 -18.366 -13.9961  255 255 255
17.0403 -18.9671 27.8853  255 255 255
1.49913 -16.8077 35.9701  255 255 255
22.7416 -22.5905 26.7338  255 255 255
17.8073 -23.1144 28.1807  255 255 255
-21.6655 -12.9196 24.4688  255 255 255
3.74872 -21.92 34.5343  255 255 255
1.44948 -21.483 35.1017  255 255 255
-19.9256 -15.3493 27.0724  255 255 255
-19.9297 -15.3443 27.1567  255 255 255
-2.64978 -22.2399 35.0763  255 255 255
-15.1224 -19.6036 31.7244  255 255 255
-8.87504 -21.5814 33.8739  255 255 255
-23.2213 -22.283 30.5822  255 255 255
-17.1575 -24.3073 32.4256  255 255 255
-17.9127 -25.1324 33.508  255 255 255
-14.8297 -28.2685 36.8601  255 255 255
-4.71569 -31.6636 39.6001  255 255 255
52.4182 -2.27117 -4.5882  255 255 255
53.7765 -18.5611 -10.8955  255 255 255
57.6084 -20.9313 -3.60411  255 255 255
51.2825 -17.5531 -16.144  255 255 255
4.95833 -16.0354 35.1826  255 255 255
17.9752 -24.1746 29.469  255 255 255
-14.9586 -21.6929 33.7532  255 255 255
13.0198 -33.6409 31.5039  255 255 255
-19.0565 -25.1004 33.4254  255 255 255
47.6131 9.61181 -8.53282  255 255 255
51.6915 -5.97647 -8.84695  255 255 255
51.528 -13.0366 -12.1916  255 255 255
53.187 -18.9407 -13.552  255 255 255
-2.34406 -18.4246 35.8959  255 255 255
-22.2182 -24.1681 32.3338  255 255 255
6.59821 -57.4944 31.7484  255 255 255
50.3039 -6.79846 -12.698  255 255 255
50.507 -9.0547 -13.8235  255 255 255
-17.4281 -17.8517 30.0192  255 255 255
-15.7413 -18.3564 30.3288  255 255 255
-10.9614 -22.7792 34.8597  255 255 255
-19.5223 -22.4717 30.4721  255 255 255
44.2569 -47.1946 18.2551  255 255 255
35.4476 -46.9761 18.3201  255 255 255
51.523 18.7895 -33.205  255 255 255
-7.80769 -23.5142 35.4388  255 255 255
41.3587 -42.4066 12.2083  255 255 255
36.8105 -49.1978 20.8589  255 255 255
-4.27528 -22.9094 34.7976  255 255 255
-11.1187 -29.1894 37.701  255 255 255
-24.983 52.9904 -54.5159  255 255 255
23.6039 60.3097 -85.6847  255 255 255
42.8764 60.9861 -99.1349  255 255 255
-1.03629 59.2127 -67.6815  255 255 255
43.6965 72.4214 -88.835  255 255 255
-44.2952 -26.964 0.479754  255 255 255
49.3126 -7.76186 -15.6165  255 255 255
1.44053 -13.6211 35.8025  255 255 255
-14.2453 -24.7391 33.4353  255 255 255
49.9392 -11.462 -16.4098  255 255 255
51.0449 -15.8493 -17.3888  255 255 255
-69.8084 19.4434 -50.4702  255 255 255
51.1772 -16.7439 -16.4795  255 255 255
-62.102 -11.3203 -15.388  255 255 255
-28.0694 -54.4021 30.9732  255 255 255
-30.4465 -56.1461 33.2349  255 255 255
54.7099 -13.4028 -6.21295  255 255 255
53.5963 -15.6476 -10.5628  255 255 255
58.5015 -26.5917 -6.8915  255 255 255
-12.5626 -20.553 32.483  255 255 255
52.6539 -42.0257 10.7952  255 255 255
-29.07 -55.9748 32.7706  255 255 255
51.2068 20.3861 -32.7709  255 255 255
53.328 -7.39829 -6.03169  255 255 255
47.5277 -42.8239 13.3847  255 255 255
-9.55433 -17.4506 34.1508  255 255 255
47.7891 25.2265 -39.4268  255 255 255
5.0756 -14.6375 35.0934  255 255 255
-7.11308 -8.11334 33.3859  255 255 255
-8.14422 -13.5327 34.7767  255 255 255
35.9241 -43.5952 14.1291  255 255 255
-14.0079 -26.0599 34.0996  255 255 255
52.1117 15.5901 -33.5168  255 255 255
50.138 -14.4902 -17.2219  255 255 255
58.6212 -25.9462 -6.07246  255 255 255
-11.0269 -19.446 33.317  255 255 255
-3.8728 -22.3505 35.0055  255 255 255
-2.22598 -19.5669 35.8538  255 255 255
50.3731 -13.8545 -16.0918  255 255 255
21.0153 65.0451 -78.5892  255 255 255
-9.24326 60.0887 -59.4628  255 255 255
33.1407 74.9202 -80.4105  255 255 255
28.7413 62.1812 -87.6471  255 255 255
45.7897 24.5168 -42.7571  255 255 255
53.8167 -11.8455 -7.66991  255 255 255
12.208 -10.9643 30.3585  255 255 255
4.81454 -12.7653 34.8759  255 255 255
-6.08337 -15.3035 35.539  255 255 255
2.96505 -19.9021 35.3178  255 255 255
13.009 -22.5437 32.2109  255 255 255
-25.44 -19.6433 27.9388  255 255 255
27.8842 61.556 -87.7163  255 255 255
49.801 20.582 -35.9136  255 255 255
-27.952 39.7104 -64.1349  255 255 255
5.94064 -12.4627 34.3172  255 255 255
52.3243 -17.6939 -15.1181  255 255 255
-8.31768 -11.8883 34.3511  255 255 255
4.92644 -15.3976 35.1639  255 255 255
10.1659 -25.0227 33.6917  255 255 255
-6.89309 -30.6496 38.5284  255 255 255
45.043 62.849 -98.6495  255 255 255
4.52929 1.19413 21.9579  255 255 255
6.66605 0.111036 23.8578  255 255 255
13.1406 -13.6127 30.187  255 255 255
-5.87738 -13.038 35.3254  255 255 255
-10.1095 -13.0522 33.863  255 255 255
-2.33376 -18.441 36.0498  255 255 255
45.3119 73.055 -89.656  255 255 255
8.87737 59.7156 -66.9993  255 255 255
8.05427 -3.27202 28.3598  255 255 255
49.6165 -6.6023 -14.6796  255 255 255
50.2946 -12.8186 -16.3184  255 255 255
46.3566 26.967 -39.457  255 255 255
-18.1975 -10.7758 26.4088  255 255 255
-0.467878 -16.5227 36.0708  255 255 255
-28.6458 47.3009 -56.8621  255 255 255
50.3423 19.4455 -35.6319  255 255 255
47.2385 -0.0994923 -15.7691  255 255 255
-2.39002 -23.6628 35.0573  255 255 255
-31.8235 -55.6694 32.7761  255 255 255
-1.87578 -10.3129 35.392  255 255 255
53.1068 -9.13741 -7.53639  255 255 255
-3.43456 -10.3159 35.066  255 255 255
-5.82386 -22.7218 34.5437  255 255 255
-5.32025 -19.637 35.4525  255 255 255
-5.30725 -23.1257 34.7674  255 255 255
-6.52155 -26.276 36.1436  255 255 255
50.7937 1.11313 -6.49259  255 255 255
27.9977 58.5993 -90.4529  255 255 255
-43.2309 48.325 -44.2786  255 255 255
48.6699 3.02004 -9.73283  255 255 255
-8.71668 -11.6472 34.1474  255 255 255
-2.69487 -14.3155 36.0498  255 255 255
58.7806 -26.9725 -6.5797  255 255 255
53.4327 67.1252 -104.152  255 255 255
-11.8444 -17.4272 33.1698  255 255 255
-11.9016 -20.9876 33.0035  255 255 255
-32.2009 8.00257 -39.5557  255 255 255
57.9401 -21.1126 -4.64988  255 255 255
-8.34964 -22.4027 34.2857  255 255 255
-3.42451 -58.8752 34.8946  255 255 255
-8.02753 -22.0135 34.0797  255 255 255
-4.26733 -58.2369 33.627  255 255 255
50.513 62.4167 -103.89  255 255 255
50.2238 60.8105 -103.781  255 255 255
-9.57794 -5.58766 30.6091  255 255 255
9.89264 -23.2019 33.1434  255 255 255
5.34867 -30.5682 37.6294  255 255 255
-20.1938 -15.1263 26.7082  255 255 255
1.75085 -16.2066 35.8045  255 255 255
-4.13274 -14.9254 35.8982  255 255 255
-5.16429 -14.5651 35.6772  255 255 255
36.3382 -48.8913 20.3494  255 255 255
-8.01108 -14.6244 34.8195  255 255 255
-9.30988 -15.2297 34.4553  255 255 255
-6.72388 -15.6602 35.3807  255 255 255
-10.5657 -14.7586 33.7737  255 255 255
-4.2578 -12.8674 35.7106  255 255 255
-4.24976 -12.8685 35.5681  255 255 255
-1.85935 -16.1378 36.1589  255 255 255
-22.028 -21.383 29.349  255 255 255
-0.260397 -18.5975 35.9913  255 255 255
57.5371 -23.6737 -7.304  255 255 255
51.5722 -2.11296 -6.23258  255 255 255
-10.7211 -14.679 33.7287  255 255 255
-6.48408 -20.4516 35.1007  255 255 255
11.1208 -13.906 31.9123  255 255 255
-3.45394 -9.39757 34.8005  255 255 255
0.447207 -9.34311 34.7941  255 255 255
47.5011 -2.26384 -15.9283  255 255 255
-13.3921 -23.7108 34.4578  255 255 255
53.1079 -12.7521 -10.0855  255 255 255
4.65691 -11.217 34.5234  255 255 255
-7.06198 -20.1868 34.8975  255 255 255
44.9457 -37.5955 6.76213  255 255 255
-21.5959 -56.0195 32.4428  255 255 255
2.56922 -20.6845 35.1318  255 255 255
-20.1833 56.1117 -55.194  255 255 255
58.2273 -21.0131 -3.95775  255 255 255
-6.40083 -19.2702 35.2663  255 255 255
-12.7016 -17.4653 32.5665  255 255 255
-9.07097 -18.0256 34.5171  255 255 255
50.6622 2.27075 -5.89119  255 255 255
-8.20987 59.4509 -61.9002  255 255 255
10.912 -37.7848 29.5095  255 255 255
-22.0325 -9.36701 20.4033  255 255 255
6.98994 -7.00997 31.6908  255 255 255
-4.83527 -10.313 34.8911  255 255 255
-15.9212 -20.3527 32.5985  255 255 255
19.0606 17.8262 -53.7357  255 255 255
1.15125 -32.3087 37.9447  255 255 255
49.3978 -5.4592 -14.0685  255 255 255
-44.5243 -7.30335 -21.5442  255 255 255
5.93643 -12.4574 34.33  255 255 255
-11.1073 -29.4182 37.762  255 255 255
-5.7669 13.9974 -47.6897  255 255 255
-23.4616 -34.4653 22.8663  255 255 255
-47.2477 -6.48337 -21.6898  255 255 255
4.82525 -12.7647 34.7722  255 255 255
49.0587 -41.758 11.4448  255 255 255
57.3361 -26.154 -6.68963  255 255 255
-30.431 -56.1281 33.308  255 255 255
-5.15731 -10.7841 34.9849  255 255 255
49.7744 21.1881 -35.6472  255 255 255
-26.1613 -56.6966 33.5351  255 255 255
53.6743 -15.6353 -10.6847  255 255 255
-28.8395 -56.2384 33.1981  255 255 255
48.9766 -3.93713 -13.8413  255 255 255
-28.2016 -55.6542 32.607  255 255 255
-28.7898 -55.4903 32.2016  255 255 255
-21.1808 -31.7601 27.3831  255 255 255
-12.603 -21.7498 33.9502  255 255 255
-7.27636 -30.4551 38.5923  255 255 255
-15.9665 -26.8127 34.9967  255 255 255
57.0395 -23.789 -8.7682  255 255 255
-9.35535 -36.5683 32.5984  255 255 255
20.7547 -21.5975 26.0014  255 255 255
-11.5582 -11.8982 32.7206  255 255 255
11.3293 -22.6169 32.4706  255 255 255
55.3343 -21.1215 -11.1939  255 255 255
-4.42964 -29.9623 37.6014  255 255 255
50.1957 25.7854 -31.4915  255 255 255
58.6361 -25.6235 -6.27833  255 255 255
57.8617 -24.2721 -7.00051  255 255 255
-5.16698 -10.1667 34.9143  255 255 255
-2.96255 -7.89333 34.0943  255 255 255
0.371058 -9.81256 35.1025  255 255 255
-16.634 -12.9183 28.8416  255 255 255
-21.9628 -12.6517 24.1331  255 255 255
-0.095325 -24.4139 35.7633  255 255 255
-13.5273 54.294 -62.3486  255 255 255
50.9016 21.5871 -32.7292  255 255 255
49.0615 24.9926 -34.8278  255 255 255
50.0353 -5.05048 -12.3827  255 255 255
56.2457 -17.5201 -5.98053  255 255 255
-27.9603 -54.7495 31.4937  255 255 255
-75.1999 5.4227 -33.6464  255 255 255
6.84075 -45.6844 26.1714  255 255 255
0.97329 -8.3487 34.3532  255 255 255
-0.71018 -8.27268 34.4184  255 255 255
-4.75879 -15.1438 35.8027  255 255 255
1.91507 -12.6276 35.6536  255 255 255
-0.763028 -13.7327 36.0665  255 255 255
-0.255695 -9.17386 34.8266  255 255 255
-67.3498 32.8762 -39.2852  255 255 255
-77.4806 28.6163 -36.3541  255 255 255
-54.4642 36.8757 -45.8854  255 255 255
-75.0771 29.6787 -41.7469  255 255 255
-34.0059 33.5226 -65.0493  255 255 255
-4.33841 -9.30867 34.5722  255 255 255
-107.245 -11.4159 -12.7311  255 255 255
-76.1617 -11.5405 -14.9652  255 255 255
-62.5095 -8.674 -18.7097  255 255 255
-71.0181 0.538504 -28.9652  255 255 255
-62.8347 -8.33366 -19.4752  255 255 255
-47.0093 13.2898 -44.6006  255 255 255
-41.5591 15.1901 -47.7663  255 255 255
-82.4201 -10.9642 -15.2875  255 255 255
-81.5296 -10.8766 -15.1919  255 255 255
-76.0465 9.28177 -38.7688  255 255 255
-83.8532 -8.14108 -17.5746  255 255 255
-76.8598 8.01006 -36.8724  255 255 255
-83.2563 -9.25724 -17.3404  255 255 255
49.0351 38.4829 -27.0191  255 255 255
-28.7385 18.8881 -52.4965  255 255 255
-25.5619 18.1827 -51.2206  255 255 255
-63.4932 -11.7412 -14.4593  255 255 255
-34.1062 25.8278 -59.3012  255 255 255
-69.9455 2.97129 -31.9127  255 255 255
-67.2081 32.8555 -39.5602  255 255 255
-57.7673 16.2406 -47.9465  255 255 255
-108.042 -6.76643 -16.947  255 255 255
-109.813 -16.1556 -5.79149  255 255 255
-108.483 -10.7661 -12.7878  255 255 255
-44.5701 12.5716 -43.1215  255 255 255
3.16235 -12.7656 35.309  255 255 255
20.1008 69.7527 -73.3908  255 255 255
-70.5984 33.6585 -33.5523  255 255 255
-63.5851 31.9551 -41.9577  255 255 255
37.7456 -41.3395 11.3037  255 255 255
18.3473 63.0501 -82.6087  255 255 255
-76.3707 6.94071 -35.1726  255 255 255
-76.414 -10.908 -15.5158  255 255 255
-70.5222 1.88756 -30.1669  255 255 255
15.4534 61.7402 -76.0235  255 255 255
10.6227 60.0004 -72.8757  255 255 255
-33.246 -57.6304 34.8992  255 255 255
-5.54737 15.9334 -50.0027  255 255 255
-42.0722 53.5748 -41.4272  255 255 255
-9.27385 -3.39379 29.287  255 255 255
-12.6905 -1.01605 24.5268  255 255 255
-41.6348 -56.5037 34.7921  255 255 255
26.8178 38.9787 -77.5322  255 255 255
20.3547 37.4387 -76.0795  255 255 255
27.5305 11.2675 -47.0158  255 255 255
5.72049 0.302413 22.5005  255 255 255
8.05068 -2.32671 27.4351  255 255 255
-16.6723 -5.01503 24.6027  255 255 255
12.3303 -21.8804 31.4823  255 255 255
3.90672 -30.3843 37.6488  255 255 255
7.70676 -36.191 32.9883  255 255 255
39.6575 -41.1046 11.1236  255 255 255
38.1385 -42.8415 13.9663  255 255 255
0.677965 -48.9447 29.5523  255 255 255
10.0818 -2.04871 25.4398  255 255 255
38.9736 -41.37 11.4724  255 255 255
36.3008 -45.1319 16.1579  255 255 255
-29.0051 -55.5446 32.7289  255 255 255
44.0619 -49.8765 21.1706  255 255 255
22.8577 -54.4029 27.5768  255 255 255
22.8577 -54.4029 27.5768  255 255 255
-21.8271 26.3219 -60.4318  255 255 255
23.2269 22.5322 -58.8395  255 255 255
-10.4682 -2.08395 27.545  255 255 255
-54.9306 -13.7611 -14.4616  255 255 255
-4.01077 -24.2142 35.6259  255 255 255
15.8418 -26.0317 31.5633  255 255 255
45.82 28.2852 -41.3866  255 255 255
8.69991 -2.69986 27.6888  255 255 255
-19.164 -56.2336 32.4648  255 255 255
46.5438 49.0297 -91.2451  255 255 255
48.7564 44.3774 -86.5072  255 255 255
11.1044 -20.0664 30.8644  255 255 255
-4.08961 -42.2119 29.9866  255 255 255
24.6636 -16.9531 20.3942  255 255 255
-31.8768 9.0928 -39.9587  255 255 255
-23.8592 -56.7238 33.8048  255 255 255
6.84265 -24.9534 35.4334  255 255 255
41.6041 -49.4574 23.1585  255 255 255
-51.1961 33.1901 -51.3528  255 255 255
-12.4954 -1.38168 25.0958  255 255 255
-4.57344 -31.1541 39.284  255 255 255
4.53745 -42.4474 29.1618  255 255 255
3.38246 2.78717 21.5883  255 255 255
5.9715 -49.0684 29.2039  255 255 255
5.2297 -32.4113 37.7007  255 255 255
7.91904 -35.211 33.6748  255 255 255
1.79172 1.70197 20.5676  255 255 255
12.3979 -37.3624 29.2471  255 255 255
23.6995 -22.5838 26.6954  255 255 255
10.5712 -38.1952 29.9173  255 255 255
21.0053 -19.633 23.9214  255 255 255
-15.8786 -43.3009 25.28  255 255 255
-18.2602 -34.7403 28.8762  255 255 255
6.199 0.747761 23.305  255 255 255
9.82815 -20.6924 32.603  255 255 255
11.9338 -39.2191 27.8767  255 255 255
11.8721 -20.4031 29.9649  255 255 255
22.6717 -36.029 17.5643  255 255 255
-8.0129 -45.7248 31.5286  255 255 255
20.6186 -25.3084 30.1013  255 255 255
-76.2563 -0.161309 -28.0141  255 255 255
-79.0581 8.66018 -37.818  255 255 255
-7.27039 56.4536 -64.5064  255 255 255
-2.24051 64.3934 -61.2367  255 255 255
21.8808 66.0361 -78.378  255 255 255
-74.0802 16.4295 -46.4334  255 255 255
6.74743 -29.2452 35.8339  255 255 255
4.12708 -20.3545 34.9683  255 255 255
11.1725 -26.6031 32.8435  255 255 255
16.7175 -24.5719 29.931  255 255 255
48.2876 -13.7779 -19.8301  255 255 255
18.49 -24.2714 29.2361  255 255 255
-6.87494 -27.8992 35.6174  255 255 255
7.86373 -1.99984 26.7572  255 255 255
-10.8711 -27.0309 34.8649  255 255 255
-4.4891 -28.4737 36.1789  255 255 255
-33.1991 -53.0485 29.9247  255 255 255
-14.0413 -29.3602 37.2124  255 255 255
16.4474 29.9619 -66.6135  255 255 255
-3.13311 -20.7361 35.4075  255 255 255
-104.091 -11.0218 -13.0955  255 255 255
-107.085 -5.74701 -18.4168  255 255 255
-102.993 -12.5344 -11.3087  255 255 255
-26.4214 18.7141 -51.8557  255 255 255
-11.3214 -13.0528 33.2222  255 255 255
