ply
format ascii 1.0
element vertex 1258
property float x
property float y
property float z
property uchar red
property uchar green
property uchar blue
end_header
-69.3125 -39.1692 16.9094  255 255 255
10.7778 -37.2985 29.6052  255 255 255
3.98356 -36.5465 33.8536  255 255 255
9.93268 -39.2154 29.1004  255 255 255
63.2293 -44.059 13.8647  255 255 255
9.37159 -39.6091 28.7542  255 255 255
-1.84155 -39.0723 32.1972  255 255 255
61.0872 -44.6937 14.8895  255 255 255
-16.1218 -39.7764 28.5594  255 255 255
-13.797 -40.0376 28.1305  255 255 255
-14.0389 -40.2026 28.0136  255 255 255
1.08819 -40.0509 31.6082  255 255 255
51.6878 -45.227 15.773  255 255 255
49.9898 -46.9092 18.5762  255 255 255
60.3714 -47.9065 18.5097  255 255 255
60.3714 -47.9065 18.5097  255 255 255
-5.45972 -43.5885 30.4498  255 255 255
54.7664 -49.2244 20.3889  255 255 255
-17.8667 -46.1265 27.3518  255 255 255
29.7461 -49.5766 21.0786  255 255 255
-37.3412 -47.9424 24.0569  255 255 255
-34.887 -47.9555 24.4623  255 255 255
17.1665 -48.5646 25.0151  255 255 255
-5.63113 -47.2474 31.8505  255 255 255
64.9626 -51.6526 23.4959  255 255 255
54.7705 -51.5149 23.3872  255 255 255
30.053 -51.1819 23.0356  255 255 255
56.9191 -51.7886 23.7649  255 255 255
58.3312 -51.8911 23.556  255 255 255
-12.3919 -49.254 27.7246  255 255 255
29.314 -51.5301 23.467  255 255 255
29.314 -51.5301 23.467  255 255 255
-30.78 -49.823 25.9553  255 255 255
61.7879 -53.1836 25.1114  255 255 255
25.9986 -52.4388 24.8225  255 255 255
25.5983 -52.5864 24.9614  255 255 255
26.0222 -53.2808 25.8845  255 255 255
25.5204 -53.2985 26.3637  255 255 255
25.6437 -53.4697 25.9464  255 255 255
-27.4633 -52.176 28.6231  255 255 255
-29.4626 -52.3544 28.9185  255 255 255
56.417 -55.0228 27.3889  255 255 255
28.9327 -54.2619 27.4396  255 255 255
-38.4334 -53.2645 29.8123  255 255 255
-23.823 -53.3632 29.7471  255 255 255
-37.1051 -53.2867 30.2964  255 255 255
50.5083 -55.5531 28.7054  255 255 255
-33.2926 -53.5566 30.3394  255 255 255
-25.4953 -53.8936 30.2714  255 255 255
23.4682 -55.646 28.6742  255 255 255
50.5353 -56.408 28.9402  255 255 255
-28.7773 -54.308 30.9313  255 255 255
23.2088 -55.9617 29.0626  255 255 255
-35.6233 -54.4444 31.2196  255 255 255
48.1073 -57.0091 28.7328  255 255 255
-22.9765 -54.776 31.3368  255 255 255
23.645 -56.2097 30.2671  255 255 255
31.096 -57.094 30.2898  255 255 255
-39.2367 -55.261 32.622  255 255 255
-27.9947 -55.5057 32.2069  255 255 255
-15.5391 -55.9305 32.1043  255 255 255
32.3961 -57.8384 30.5046  255 255 255
51.0925 -58.3106 31.5528  255 255 255
-28.7852 -56.3495 33.7205  255 255 255
56.6597 -58.8525 32.2041  255 255 255
-23.7999 -56.6777 33.2815  255 255 255
-49.9812 -56.6282 34.4065  255 255 255
-20.0962 -56.9225 33.2657  255 255 255
17.6026 -58.127 31.9824  255 255 255
-22.7465 -57.0769 33.7479  255 255 255
-3.68895 -57.7628 33.0105  255 255 255
-19.0603 -57.4327 33.8076  255 255 255
46.0254 -59.78 32.2393  255 255 255
-7.52739 -57.9078 33.6365  255 255 255
17.0895 -58.82 32.7848  255 255 255
-29.0609 -57.604 34.3547  255 255 255
15.642 -58.6351 33.2759  255 255 255
-13.709 -57.8319 33.9104  255 255 255
-7.56232 -58.0988 33.8036  255 255 255
-0.661023 -58.3536 33.6198  255 255 255
-32.8291 -57.5552 35.2246  255 255 255
0.420271 -58.4836 33.4854  255 255 255
-18.4986 -57.8667 34.4977  255 255 255
-3.50926 -58.2098 34.1215  255 255 255
14.4572 -59.023 33.0831  255 255 255
6.96277 -58.7914 33.4656  255 255 255
-10.4581 -58.2117 34.2564  255 255 255
40.9706 -59.9524 33.8414  255 255 255
35.1095 -59.9357 33.636  255 255 255
-9.12674 -58.6005 34.6144  255 255 255
-9.12023 -58.6176 34.5712  255 255 255
2.97094 -58.9791 34.8861  255 255 255
23.2386 -59.7492 34.3217  255 255 255
21.322 -59.6779 34.3987  255 255 255
-9.86673 -58.8088 34.9046  255 255 255
-2.05308 -59.125 34.4984  255 255 255
7.08226 -59.2975 34.5833  255 255 255
7.16279 -59.4851 34.2127  255 255 255
7.16279 -59.4851 34.2127  255 255 255
-14.164 -58.7867 35.1107  255 255 255
40.3287 -60.7799 33.7548  255 255 255
-1.07263 -59.411 34.3509  255 255 255
48.5163 -60.7288 34.5543  255 255 255
-14.3811 -58.9819 35.3357  255 255 255
-3.08212 -59.4679 34.8417  255 255 255
-14.2242 -59.0313 35.6508  255 255 255
-14.2278 -59.1055 35.4653  255 255 255
18.1915 -60.4806 35.474  255 255 255
-7.22819 -59.7637 36.4874  255 255 255
19.7704 -60.9564 35.2895  255 255 255
-7.52628 -60.0798 36.2762  255 255 255
41.6774 -62.0156 35.1081  255 255 255
41.6774 -62.0156 35.1081  255 255 255
-78.2996 53.5964 -10.9958  255 255 255
25.8004 74.9629 -74.2139  255 255 255
-72.4341 54.8966 -15.2661  255 255 255
-73.0119 54.3964 -14.7857  255 255 255
48.1117 79.3475 -86.7533  255 255 255
-52.7491 58.3859 -27.7397  255 255 255
-52.7629 58.4314 -27.8626  255 255 255
-35.7016 61.6719 -38.1511  255 255 255
62.4079 82.2172 -94.7354  255 255 255
62.5106 82.2988 -94.8965  255 255 255
-54.6436 57.8551 -26.3038  255 255 255
-67.3748 55.4417 -18.7467  255 255 255
-68.8122 55.1041 -17.9225  255 255 255
-68.6902 54.8957 -17.3375  255 255 255
-0.602677 68.6884 -59.3659  255 255 255
-0.602677 68.6884 -59.3659  255 255 255
28.4565 74.9025 -76.5579  255 255 255
-50.5895 58.4828 -29.505  255 255 255
-42.7426 59.9209 -34.0925  255 255 255
-76.7415 53.0181 -12.2855  255 255 255
-36.1525 60.9514 -38.3945  255 255 255
-36.1104 60.9043 -38.4513  255 255 255
30.3537 74.65 -77.692  255 255 255
-64.4132 55.3598 -21.2487  255 255 255
31.044 74.5218 -78.4873  255 255 255
-70.9615 53.8765 -17.1329  255 255 255
52.0065 78.6645 -90.0382  255 255 255
58.3586 79.9721 -93.7713  255 255 255
61.784 80.59 -95.471  255 255 255
48.869 77.7464 -88.498  255 255 255
-41.1066 59.2411 -36.2229  255 255 255
52.3831 48.9177 -12.0799  255 255 255
-31.4722 60.9929 -42.0405  255 255 255
29.5723 73.3284 -77.7091  255 255 255
27.315 73.0563 -77.2612  255 255 255
-65.2917 54.4006 -21.1877  255 255 255
59.9612 79.4024 -95.2707  255 255 255
-65.6911 54.3294 -21.3332  255 255 255
6.42317 68.2768 -65.0061  255 255 255
-25.4671 61.43 -45.8873  255 255 255
48.0692 51.2115 -20.3414  255 255 255
27.7478 72.3206 -78.0099  255 255 255
26.8238 72.0747 -77.8051  255 255 255
54.9482 46.2114 -7.94404  255 255 255
29.3554 72.153 -78.8778  255 255 255
23.0687 70.8872 -75.6522  255 255 255
27.5522 71.5328 -77.4082  255 255 255
52.135 48.1269 -13.3388  255 255 255
59.7859 78.223 -96.4459  255 255 255
-66.2452 53.2268 -21.3147  255 255 255
-65.0065 53.4817 -22.3058  255 255 255
29.907 72.0087 -79.818  255 255 255
-64.3169 53.6329 -22.9478  255 255 255
-7.31712 64.3876 -57.9591  255 255 255
37.0734 73.4165 -84.1468  255 255 255
-63.973 53.5219 -23.0996  255 255 255
38.483 73.3094 -83.9048  255 255 255
38.8625 73.6647 -85.195  255 255 255
47.8494 50.6099 -21.4494  255 255 255
62.0016 78.2402 -98.2507  255 255 255
68.2649 79.1948 -101.024  255 255 255
-65.3116 52.6676 -21.2802  255 255 255
-82.223 49.8865 -11.5015  255 255 255
-82.223 49.8865 -11.5015  255 255 255
-7.08463 63.7804 -57.6527  255 255 255
22.9954 70.0009 -75.7575  255 255 255
39.4479 73.3785 -85.7382  255 255 255
67.4073 79.0488 -101.362  255 255 255
19.1999 69.2657 -74.2163  255 255 255
52.943 47.1372 -13.1548  255 255 255
-131.73 76.3371 -80.1836  255 255 255
-52.8197 55.1009 -30.4528  255 255 255
-52.7091 54.8775 -29.8334  255 255 255
50.3168 36.0042 17.5989  255 255 255
50.3011 35.9898 17.6134  255 255 255
51.2744 47.7876 -15.5443  255 255 255
-4.46056 64.0128 -59.8929  255 255 255
-4.44163 63.9992 -59.9132  255 255 255
49.9963 48.3517 -18.2993  255 255 255
50.0029 36.2829 15.2327  255 255 255
50.3875 36.5159 14.6617  255 255 255
50.5802 35.8305 16.3704  255 255 255
-80.3446 49.3748 -13.3434  255 255 255
67.1324 77.0943 -102.359  255 255 255
65.3588 76.5321 -101.309  255 255 255
11.6281 66.1223 -71.4308  255 255 255
50.9152 35.1691 16.4035  255 255 255
50.93 35.1627 16.3889  255 255 255
11.1485 65.7222 -71.4824  255 255 255
31.8437 61.9088 -60.7737  255 255 255
-65.9498 50.9498 -23.4318  255 255 255
66.9267 76.1418 -103.022  255 255 255
-15.6744 60.0288 -55.3764  255 255 255
-66.0305 50.6824 -23.9331  255 255 255
55.3292 43.2687 -9.21033  255 255 255
-82.3087 47.5974 -13.0596  255 255 255
53.066 32.3607 21.6239  255 255 255
-77.3689 48.2286 -16.7336  255 255 255
63.33 75.4665 -105.249  255 255 255
-49.7094 52.6962 -35.1231  255 255 255
48.5976 70.9914 -94.6223  255 255 255
54.426 72.3108 -98.5337  255 255 255
-11.4061 59.1652 -59.6608  255 255 255
-11.4112 59.1729 -59.6486  255 255 255
-39.2677 54.0567 -42.199  255 255 255
-35.3404 54.6624 -44.8638  255 255 255
-35.366 54.6641 -44.8262  255 255 255
50.8605 33.4169 15.3266  255 255 255
-14.3679 58.0129 -57.9267  255 255 255
-14.3679 58.0129 -57.9267  255 255 255
-51.0951 51.5899 -35.3998  255 255 255
-51.0951 51.5899 -35.3998  255 255 255
-74.9768 47.4732 -19.9202  255 255 255
-74.313 47.664 -20.7452  255 255 255
50.5964 33.2299 14.6433  255 255 255
47.1851 69.3183 -95.0837  255 255 255
47.1348 69.2641 -94.8952  255 255 255
-74.5786 47.2883 -20.3282  255 255 255
-115.22 61.7398 -58.8152  255 255 255
-9.47795 58.3834 -61.0991  255 255 255
53.435 31.2611 19.232  255 255 255
-107.752 57.2037 -48.8913  255 255 255
53.2361 42.0326 -14.8159  255 255 255
45.0358 67.5674 -94.6072  255 255 255
-113.385 59.7888 -57.5873  255 255 255
52.567 31.2155 17.1024  255 255 255
55.8886 28.6872 23.8973  255 255 255
-84.1039 44.2442 -15.2645  255 255 255
-17.0117 55.4385 -58.4799  255 255 255
-17.0117 55.4385 -58.4799  255 255 255
56.6 28.1567 25.3775  255 255 255
50.407 43.044 -20.7668  255 255 255
50.1108 43.0384 -21.711  255 255 255
-51.4828 49.2921 -36.8941  255 255 255
-42.1223 50.7651 -43.1023  255 255 255
-36.074 51.7169 -46.5689  255 255 255
-63.1301 47.1864 -29.5518  255 255 255
-57.2424 48.2411 -33.6185  255 255 255
51.453 30.9826 14.895  255 255 255
51.2193 30.8814 14.6723  255 255 255
53.3504 29.5117 18.1405  255 255 255
55.9166 28.1056 22.631  255 255 255
-18.4421 53.8546 -58.8402  255 255 255
-18.4511 53.8196 -58.7584  255 255 255
-9.2246 55.0367 -63.7256  255 255 255
-9.2246 55.0367 -63.7256  255 255 255
-101.299 51.3087 -41.4398  255 255 255
-78.1337 43.9715 -20.6951  255 255 255
-50.1209 48.0707 -39.0574  255 255 255
48.3781 42.2083 -25.5572  255 255 255
29.7669 61.1911 -89.494  255 255 255
49.8821 30.6429 11.1191  255 255 255
-18.0967 52.717 -60.0483  255 255 255
52.9003 28.748 16.4225  255 255 255
52.9003 28.748 16.4225  255 255 255
56.7511 26.7269 23.519  255 255 255
52.1963 39.0213 -18.1035  255 255 255
22.4807 59.4377 -85.7664  255 255 255
19.9024 58.733 -84.3323  255 255 255
-37.3642 48.6642 -48.2577  255 255 255
59.1906 24.5926 28.7873  255 255 255
-11.1805 52.588 -64.9174  255 255 255
59.841 23.8973 29.9509  255 255 255
-9.32924 52.7398 -66.3715  255 255 255
59.7261 24.0138 29.3829  255 255 255
48.6413 62.4438 -102.328  255 255 255
48.7538 62.5616 -102.577  255 255 255
59.9167 23.5684 29.9877  255 255 255
59.9644 23.5932 29.9066  255 255 255
52.8077 37.9038 -18.883  255 255 255
52.8462 27.7034 15.511  255 255 255
59.9275 23.4131 28.8845  255 255 255
23.9028 57.1495 -88.2879  255 255 255
60.7225 22.6694 30.8529  255 255 255
-42.982 45.4972 -46.2687  255 255 255
-29.6133 47.626 -55.5658  255 255 255
50.2738 28.195 10.004  255 255 255
-66.9589 41.783 -31.2601  255 255 255
50.0952 27.9965 9.53257  255 255 255
50.4307 27.7703 10.0514  255 255 255
55.6988 24.8643 20.3315  255 255 255
60.2341 22.2175 28.623  255 255 255
60.5612 21.9944 29.4201  255 255 255
55.733 24.5608 20.0559  255 255 255
55.733 24.5608 20.0559  255 255 255
-103.915 47.4547 -49.5207  255 255 255
-49.6495 43.3076 -42.8192  255 255 255
53.2148 25.7879 14.7318  255 255 255
-28.123 46.5717 -57.8622  255 255 255
18.874 53.9869 -87.8037  255 255 255
56.2661 23.8954 20.5379  255 255 255
-27.9259 46.1686 -58.191  255 255 255
-38.0118 44.6462 -51.636  255 255 255
53.1239 25.4443 14.5299  255 255 255
53.5779 25.089 15.4889  255 255 255
-39.2613 44.0921 -50.8972  255 255 255
-59.8455 41.1968 -38.6099  255 255 255
-64.2095 40.3306 -35.3019  255 255 255
-64.1974 40.3493 -35.3115  255 255 255
-48.8475 42.4474 -45.3684  255 255 255
61.5533 20.4275 30.2139  255 255 255
50.8082 25.7942 9.81381  255 255 255
54.0509 23.9315 16.214  255 255 255
48.6558 35.6051 -29.1945  255 255 255
49.9457 34.8888 -26.6216  255 255 255
51.878 33.3758 -22.4455  255 255 255
-58.2272 39.7918 -40.2711  255 255 255
58.4285 21.118 23.6176  255 255 255
-135.925 54.6233 -86.9137  255 255 255
52.5425 33.1643 -23.3795  255 255 255
52.5425 33.1643 -23.3795  255 255 255
-96.6895 40.9432 -40.7855  255 255 255
47.3163 34.9029 -32.6891  255 255 255
48.5837 25.3753 4.39299  255 255 255
-49.0875 39.9381 -47.3195  255 255 255
-49.056 39.9277 -47.3374  255 255 255
-9.13592 45.3835 -73.2607  255 255 255
-52.8741 39.2488 -44.774  255 255 255
49.2866 24.8152 5.60298  255 255 255
-65.1197 37.5545 -36.9411  255 255 255
-65.0702 37.5136 -36.8462  255 255 255
-64.3167 37.4655 -36.6671  255 255 255
-49.7251 39.2134 -47.1391  255 255 255
51.8169 31.5833 -23.997  255 255 255
-80.9067 34.857 -27.1189  255 255 255
48.6035 24.5051 3.7599  255 255 255
51.4114 23.2288 9.28081  255 255 255
-79.8961 34.6246 -28.2566  255 255 255
-26.7797 41.316 -63.205  255 255 255
51.4529 22.7439 9.49126  255 255 255
-75.5334 35.3072 -31.9464  255 255 255
-79.9356 34.1912 -28.4273  255 255 255
-80.006 34.2345 -28.6158  255 255 255
-76.284 34.7689 -31.7391  255 255 255
-74.9341 34.2207 -32.4749  255 255 255
53.2921 29.2747 -22.2079  255 255 255
61.1014 17.3562 27.5335  255 255 255
61.0032 17.3156 27.616  255 255 255
50.4159 22.1872 6.6375  255 255 255
54.3212 28.438 -20.2317  255 255 255
-33.3414 38.7404 -60.3798  255 255 255
-80.2028 33.1537 -29.5552  255 255 255
-28.8229 39.4032 -63.6253  255 255 255
50.4292 30.2047 -28.7937  255 255 255
53.8321 28.4402 -21.2563  255 255 255
54.5028 28.0522 -20.1605  255 255 255
-64.5622 33.1878 -34.6615  255 255 255
-64.8254 32.8094 -34.2136  255 255 255
54.4991 27.6172 -20.3412  255 255 255
-40.517 37.0584 -56.0886  255 255 255
-40.5482 37.1071 -56.2917  255 255 255
-130.292 44.8269 -76.4444  255 255 255
-34.6475 37.6864 -61.2021  255 255 255
-12.0576 40.4139 -75.7955  255 255 255
58.3533 17.3959 21.7876  255 255 255
-12.773 39.6743 -75.8874  255 255 255
-83.1354 31.1571 -29.2832  255 255 255
53.19 19.2823 11.3638  255 255 255
53.2106 19.2865 11.333  255 255 255
53.2002 19.2898 11.337  255 255 255
-63.5578 33.0157 -42.1137  255 255 255
-50.5702 34.8907 -53.3996  255 255 255
-61.5261 32.9018 -43.8829  255 255 255
16.0962 38.396 -76.8049  255 255 255
-66.6793 32.3011 -41.2366  255 255 255
-9.75583 38.0384 -74.8857  255 255 255
58.7137 16.44 21.6103  255 255 255
53.8883 18.4643 12.186  255 255 255
57.1021 17.1581 18.0335  255 255 255
59.4988 15.9312 22.9029  255 255 255
59.4332 15.8977 22.997  255 255 255
50.5282 19.7797 4.17751  255 255 255
50.4181 19.7128 4.45513  255 255 255
58.7503 16.0313 21.2614  255 255 255
57.0105 16.6993 18.1521  255 255 255
50.1265 19.6213 4.25427  255 255 255
-33.6533 34.386 -64.4716  255 255 255
-8.13527 35.4656 -71.9263  255 255 255
-58.0406 31.6738 -47.7766  255 255 255
49.5725 19.2508 2.57934  255 255 255
54.0927 17.2514 12.1924  255 255 255
-77.6572 29.6436 -35.4067  255 255 255
60.3031 14.6795 23.9426  255 255 255
60.2294 14.6543 23.9897  255 255 255
52.7749 17.7249 8.95623  255 255 255
60.6167 14.4004 24.7312  255 255 255
60.6167 14.4004 24.7312  255 255 255
47.7137 19.483 -0.875694  255 255 255
60.0989 14.5593 22.947  255 255 255
-74.9096 29.9732 -40.9062  255 255 255
52.391 17.4646 8.21795  255 255 255
-74.6318 30.0051 -41.5149  255 255 255
-56.1894 30.9749 -50.2879  255 255 255
-47.2902 31.9628 -56.5102  255 255 255
-34.8993 33.2777 -64.773  255 255 255
57.4796 15.1703 18.1026  255 255 255
57.497 15.1806 18.0699  255 255 255
-75.0173 29.6135 -41.483  255 255 255
48.2344 18.477 -0.186807  255 255 255
-79.4547 27.9619 -35.3089  255 255 255
-84.729 27.2385 -31.6264  255 255 255
-66.2297 28.9222 -44.2998  255 255 255
61.6382 12.841 26.0194  255 255 255
55.5752 15.1886 13.7868  255 255 255
55.6337 15.199 13.7844  255 255 255
-41.682 30.9094 -61.5484  255 255 255
-2.01256 31.2182 -67.2497  255 255 255
52.8548 16.1708 7.80339  255 255 255
50.6149 16.4927 3.6864  255 255 255
-39.379 30.2482 -62.2163  255 255 255
-85.3358 25.0205 -31.6892  255 255 255
40.7423 28.8633 -67.6951  255 255 255
46.4763 23.8807 -42.1637  255 255 255
50.1964 15.5108 2.35459  255 255 255
53.0785 14.5538 7.62659  255 255 255
-63.0053 26.3554 -46.9381  255 255 255
-73.3697 26.3439 -45.0822  255 255 255
-0.282243 27.7417 -63.9807  255 255 255
58.8252 12.1377 19.1159  255 255 255
58.7891 12.1743 19.1647  255 255 255
63.1086 10.4537 27.7615  255 255 255
59.8781 11.9489 18.8638  255 255 255
47.2075 22.4607 -40.8829  255 255 255
47.1921 22.5386 -40.8781  255 255 255
-80.4802 24.4988 -37.2134  255 255 255
-44.3389 27.29 -60.6938  255 255 255
-79.6308 24.2432 -37.4267  255 255 255
59.3951 11.4287 19.8561  255 255 255
59.1396 11.3723 19.5742  255 255 255
-75.3507 25.1784 -46.2501  255 255 255
59.6229 11.0979 19.74  255 255 255
26.6178 25.9056 -65.0943  255 255 255
-67.5035 24.6224 -46.9351  255 255 255
49.7731 20.5779 -35.8431  255 255 255
-84.4954 23.0947 -35.5608  255 255 255
53.4314 12.8488 7.64002  255 255 255
-81.3832 23.1246 -38.7918  255 255 255
48.6553 14.0874 -1.9539  255 255 255
49.171 14.0205 -1.99435  255 255 255
49.1892 13.9752 -1.95097  255 255 255
53.7901 12.2541 7.86348  255 255 255
53.7096 12.2035 8.08527  255 255 255
48.9864 13.6667 -2.20628  255 255 255
59.1231 10.1758 18.3729  255 255 255
-1.08951 22.7979 -58.1159  255 255 255
54.5985 11.3592 9.00748  255 255 255
-38.3171 22.9474 -55.5913  255 255 255
61.0773 8.93359 21.9052  255 255 255
-35.9621 22.4087 -54.5972  255 255 255
58.9724 9.44698 17.9305  255 255 255
62.7287 7.91204 26.0532  255 255 255
62.9603 7.83595 26.5259  255 255 255
53.8752 10.7369 6.82139  255 255 255
62.9985 7.6083 26.3776  255 255 255
51.4648 11.3895 2.50862  255 255 255
-18.2721 20.7284 -54.4926  255 255 255
58.8975 8.85318 17.3866  255 255 255
29.0514 20.1668 -57.3206  255 255 255
-85.2379 19.5779 -37.3047  255 255 255
59.1278 8.44776 16.6721  255 255 255
-15.0621 19.9595 -53.6806  255 255 255
-82.7285 19.3836 -38.1882  255 255 255
-20.2158 19.8447 -53.165  255 255 255
-6.44747 19.5211 -52.6928  255 255 255
50.5256 10.6483 1.29438  255 255 255
-43.7661 19.7347 -50.8146  255 255 255
52.7991 15.4021 -31.9002  255 255 255
52.2173 10.1044 2.94026  255 255 255
33.8573 18.5771 -56.1649  255 255 255
52.2345 9.6804 3.0887  255 255 255
-18.4308 18.0218 -51.3496  255 255 255
64.0034 5.82706 27.0623  255 255 255
-70.0792 18.896 -49.9658  255 255 255
-22.2996 16.7771 -49.1096  255 255 255
-19.1585 16.8704 -50.2922  255 255 255
-13.5118 16.7473 -50.2675  255 255 255
-15.2482 16.6975 -50.3207  255 255 255
60.9212 6.17056 20.1613  255 255 255
51.9633 13.4495 -33.0359  255 255 255
54.0619 8.06276 5.78812  255 255 255
57.4417 7.08638 12.9876  255 255 255
57.4959 7.09245 12.9502  255 255 255
56.6691 7.07601 11.1955  255 255 255
56.6719 7.07102 11.1966  255 255 255
-60.7394 16.9268 -48.2244  255 255 255
-79.3185 17.2234 -46.3539  255 255 255
48.4138 8.76806 -6.05049  255 255 255
-13.7756 14.3235 -47.6202  255 255 255
51.0115 7.62479 -1.22944  255 255 255
52.0243 7.41665 0.495775  255 255 255
-16.5697 14.1931 -47.5426  255 255 255
-57.376 13.9492 -44.8164  255 255 255
52.3454 6.57579 0.0478743  255 255 255
-18.6805 12.9097 -45.4602  255 255 255
55.4894 5.25846 7.04216  255 255 255
-34.3188 12.2971 -44.8115  255 255 255
63.548 2.81605 23.8528  255 255 255
58.205 3.97198 13.0377  255 255 255
-15.0049 11.1891 -44.0745  255 255 255
58.4743 3.57721 12.9854  255 255 255
-15.8668 10.5238 -42.7136  255 255 255
-4.82725 2.57831 22.8743  255 255 255
-1.88253 2.34864 21.6184  255 255 255
-72.1498 10.7461 -40.4678  255 255 255
52.1381 4.16972 -0.88711  255 255 255
52.551 3.86175 -0.192776  255 255 255
50.5005 4.25472 -5.06692  255 255 255
-10.0314 1.81905 21.4277  255 255 255
51.3076 3.617 -3.04777  255 255 255
56.1999 2.39129 6.83472  255 255 255
56.2378 2.39901 6.73626  255 255 255
51.5029 3.23397 -3.14255  255 255 255
59.013 1.65731 11.9276  255 255 255
-54.6538 8.18509 -37.9475  255 255 255
62.8736 0.573708 21.2335  255 255 255
53.515 2.55413 1.23545  255 255 255
47.7958 3.76167 -11.3561  255 255 255
53.0449 2.62897 0.193382  255 255 255
-25.1402 7.12664 -39.742  255 255 255
57.662 1.1861 9.49852  255 255 255
57.7118 0.864517 9.14769  255 255 255
57.0755 0.869506 7.73189  255 255 255
64.7142 -0.772602 24.4085  255 255 255
57.4019 0.805012 7.8894  255 255 255
57.2499 0.758153 8.19532  255 255 255
58.2748 0.523112 10.5621  255 255 255
57.7821 0.425651 9.21326  255 255 255
57.7821 0.425651 9.21326  255 255 255
60.8473 -0.100217 13.9982  255 255 255
60.8546 -0.121877 14.0083  255 255 255
62.8325 -0.6826 20.048  255 255 255
62.8325 -0.6826 20.048  255 255 255
64.4862 -1.0842 23.7493  255 255 255
63.0403 -0.951759 19.4016  255 255 255
62.6658 -0.99854 20.0197  255 255 255
-17.9818 1.20444 3.0235  255 255 255
54.2722 0.328907 1.34328  255 255 255
57.6304 -0.413206 8.41363  255 255 255
62.618 -1.43049 19.6272  255 255 255
-39.5929 4.07415 -34.0106  255 255 255
63.1552 -1.6669 20.5317  255 255 255
55.6329 -0.364914 4.76833  255 255 255
-18.9673 0.375152 3.96815  255 255 255
62.6218 -1.69424 19.379  255 255 255
55.605 -0.453487 3.98441  255 255 255
55.605 -0.453487 3.98441  255 255 255
0.131619 -1.95701 27.4017  255 255 255
59.6682 -1.19634 12.6462  255 255 255
58.6003 -1.08218 10.1649  255 255 255
63.5608 -2.00532 20.901  255 255 255
61.9354 -1.78524 17.9988  255 255 255
61.8557 -1.77731 17.3472  255 255 255
62.8217 -2.02978 19.3888  255 255 255
62.8216 -2.01476 19.3761  255 255 255
59.9569 -1.54644 13.0119  255 255 255
-105.488 4.83798 -30.8215  255 255 255
59.2286 -1.57206 11.227  255 255 255
59.2286 -1.57206 11.227  255 255 255
46.7758 0.553321 -16.2504  255 255 255
62.9339 -2.40974 19.5085  255 255 255
60.3686 -2.02131 13.5972  255 255 255
-20.3014 -0.574093 5.3758  255 255 255
56.13 -1.39047 4.39181  255 255 255
62.5177 -2.58803 18.6247  255 255 255
63.2893 -2.8093 18.9236  255 255 255
52.0915 -1.14146 -4.46975  255 255 255
62.5248 -2.94621 18.3367  255 255 255
59.6145 -2.44915 11.285  255 255 255
59.4989 -2.51726 11.4759  255 255 255
61.222 -2.78613 11.5685  255 255 255
59.0553 -2.61262 10.1122  255 255 255
59.1005 -2.61655 10.0748  255 255 255
-44.7317 1.40446 -31.2095  255 255 255
61.4259 -3.11586 15.1823  255 255 255
62.1689 -3.3657 17.7659  255 255 255
59.8042 -3.03487 11.4577  255 255 255
-23.0163 -1.88175 6.98843  255 255 255
62.1574 -3.52389 16.836  255 255 255
54.1175 -2.40949 -0.970207  255 255 255
61.8761 -3.66659 15.7802  255 255 255
61.7901 -3.69639 15.9102  255 255 255
61.9542 -3.82817 17.0442  255 255 255
60.5905 -3.59972 12.8078  255 255 255
60.5873 -3.60082 12.8139  255 255 255
63.1643 -4.03134 18.873  255 255 255
63.1643 -4.03134 18.873  255 255 255
-71.0314 0.652246 -26.5854  255 255 255
-22.7762 -2.64382 7.84011  255 255 255
54.3452 -3.02891 -0.691372  255 255 255
42.0643 -0.980203 -34.4242  255 255 255
54.6064 -3.20949 -0.337776  255 255 255
65.3235 -4.83178 23.4851  255 255 255
60.1644 -4.18667 11.6048  255 255 255
-47.4073 -0.42172 -28.503  255 255 255
54.5171 -3.46661 -0.661664  255 255 255
-10.9343 -4.63178 29.2506  255 255 255
51.3632 -3.11288 -7.88356  255 255 255
63.0314 -4.80946 18.3309  255 255 255
62.4269 -4.87032 16.7715  255 255 255
54.8468 -4.05516 -0.422224  255 255 255
63.1607 -5.22576 18.0721  255 255 255
63.1404 -5.21357 18.0936  255 255 255
-5.58597 -5.43301 32.092  255 255 255
65.2769 -5.55648 22.1089  255 255 255
55.1323 -4.34241 0.111099  255 255 255
61.2313 -5.29162 13.3551  255 255 255
54.8977 -4.7269 -0.776252  255 255 255
62.5241 -5.83504 15.9567  255 255 255
49.752 -4.49105 -12.6256  255 255 255
-19.6183 -4.9954 15.0873  255 255 255
62.4674 -5.99444 15.6141  255 255 255
-67.261 -2.19597 -26.1429  255 255 255
47.235 -4.84372 -17.8593  255 255 255
64.7232 -6.68296 20.7626  255 255 255
-19.7958 -5.53785 15.8256  255 255 255
59.284 -6.26408 8.1024  255 255 255
60.3492 -6.36588 10.8163  255 255 255
62.3594 -6.89512 14.749  255 255 255
62.2885 -6.9123 14.851  255 255 255
5.80691 -7.14822 32.3349  255 255 255
48.0396 -5.90397 -17.2501  255 255 255
55.3246 -6.69967 -0.936427  255 255 255
59.4586 -7.18266 7.71101  255 255 255
64.6527 -8.00002 20.0296  255 255 255
57.6868 -7.43433 3.79846  255 255 255
58.905 -7.54463 6.47212  255 255 255
66.3735 -8.29576 22.9869  255 255 255
-24.6978 -6.82206 13.24  255 255 255
2.09709 -7.98482 33.9772  255 255 255
60.697 -7.81955 10.2809  255 255 255
60.7006 -7.82716 10.2925  255 255 255
-17.171 -7.60449 26.0168  255 255 255
62.6564 -8.06928 13.5417  255 255 255
66.2923 -8.7179 22.8143  255 255 255
-3.6838 -8.3407 34.2748  255 255 255
58.8346 -8.22759 5.34375  255 255 255
-2.21906 -8.4027 34.3179  255 255 255
1.81237 -8.62588 34.4103  255 255 255
56.8496 -8.43027 1.10212  255 255 255
-46.817 -6.33326 -23.3115  255 255 255
-70.3572 -5.96054 -22.2777  255 255 255
62.8547 -9.00908 14.9275  255 255 255
-14.3034 -8.5979 29.5535  255 255 255
-1.98872 -9.02579 34.7385  255 255 255
-1.99642 -9.02482 34.827  255 255 255
-8.08774 -9.13314 33.5309  255 255 255
9.24267 -9.38058 31.6522  255 255 255
46.3597 -8.63744 -22.442  255 255 255
-56.4311 -7.55172 -20.553  255 255 255
61.6066 -9.89558 11.0898  255 255 255
4.07766 -9.89026 34.3456  255 255 255
48.6407 -9.44879 -18.2321  255 255 255
2.72065 -9.98254 34.545  255 255 255
46.702 -9.92136 -23.7554  255 255 255
56.8074 -10.4961 -0.504534  255 255 255
59.4673 -10.661 6.45994  255 255 255
24.1072 -10.3973 12.8384  255 255 255
60.1396 -10.7354 8.2492  255 255 255
58.5049 -10.7585 3.25813  255 255 255
58.6856 -10.7798 3.72543  255 255 255
47.5845 -10.3953 -24.0792  255 255 255
47.0518 -10.4476 -22.3494  255 255 255
56.9436 -10.9521 -0.426007  255 255 255
59.4568 -11.0357 5.60316  255 255 255
-27.7518 -10.0024 16.8131  255 255 255
58.9786 -11.032 4.14367  255 255 255
66.1962 -11.3646 20.8896  255 255 255
-13.363 -10.4639 31.1285  255 255 255
-69.2682 -8.99061 -18.3792  255 255 255
58.5571 -11.331 2.18608  255 255 255
59.0499 -11.4926 4.04134  255 255 255
59.3048 -11.4592 4.7089  255 255 255
64.4828 -11.8222 16.7597  255 255 255
66.7748 -11.9802 21.903  255 255 255
58.7178 -11.762 2.94324  255 255 255
59.7517 -11.8203 5.53766  255 255 255
47.5266 -11.4806 -22.9124  255 255 255
61.1414 -11.8457 8.56965  255 255 255
66.2265 -12.0315 20.8453  255 255 255
57.107 -11.8487 -0.76819  255 255 255
59.491 -11.8778 4.82793  255 255 255
64.3254 -12.0301 16.5732  255 255 255
64.3254 -12.0301 16.5732  255 255 255
60.6128 -12.3173 7.29319  255 255 255
62.3564 -12.4701 11.7617  255 255 255
-25.9844 -11.3274 18.2368  255 255 255
56.9679 -12.5127 -1.29526  255 255 255
57.0097 -12.5098 -1.40053  255 255 255
59.1394 -12.532 3.49909  255 255 255
66.6546 -12.765 21.052  255 255 255
50.9965 -12.5753 -14.5607  255 255 255
-49.2452 -11.2136 -16.408  255 255 255
-8.32941 -11.8809 34.4018  255 255 255
60.4334 -12.9216 5.76215  255 255 255
-52.0118 -11.4104 -16.0468  255 255 255
60.0098 -12.9875 4.39328  255 255 255
-54.5921 -11.5275 -15.7527  255 255 255
60.7119 -13.1304 6.87284  255 255 255
60.7035 -13.1284 6.87531  255 255 255
-52.3844 -11.5553 -15.6354  255 255 255
-3.58774 -12.2364 35.5822  255 255 255
63.6247 -13.225 13.6102  255 255 255
56.0576 -13.4954 -4.13278  255 255 255
-52.2439 -11.9938 -15.2737  255 255 255
-52.2577 -11.9855 -15.2485  255 255 255
49.2687 -13.5688 -20.3576  255 255 255
58.1666 -13.7763 0.1343  255 255 255
60.7763 -13.9153 7.01519  255 255 255
65.8546 -13.9419 18.6281  255 255 255
-18.9456 -12.6998 25.6934  255 255 255
58.4012 -14.1254 0.601733  255 255 255
-19.6053 -12.9332 24.4571  255 255 255
-48.41 -12.9661 -14.2278  255 255 255
-49.1666 -13.1743 -13.9577  255 255 255
-52.5724 -13.1595 -13.8182  255 255 255
66.2535 -14.5018 19.4553  255 255 255
66.3073 -14.4896 19.4113  255 255 255
53.5417 -14.8012 -10.4383  255 255 255
66.1439 -14.5531 19.0035  255 255 255
64.479 -14.6938 15.3865  255 255 255
-20.2373 -13.3668 24.9522  255 255 255
58.4696 -14.8234 0.329669  255 255 255
58.3504 -14.8634 0.531884  255 255 255
66.9415 -14.8317 20.4243  255 255 255
1.19326 -13.7758 35.862  255 255 255
51.6707 -15.375 -14.9493  255 255 255
19.323 -14.4421 22.3571  255 255 255
60.0272 -15.3263 3.74211  255 255 255
-63.3608 -13.9239 -12.3968  255 255 255
58.1383 -15.5721 -0.586368  255 255 255
-4.02779 -14.1335 35.7734  255 255 255
58.8963 -15.8795 0.608508  255 255 255
-27.704 -14.1869 21.6244  255 255 255
-55.4624 -14.5675 -12.8148  255 255 255
-21.5963 -14.3219 26.0653  255 255 255
58.0306 -16.1893 -1.06121  255 255 255
10.4785 -15.0218 32.387  255 255 255
58.5506 -16.5757 -0.76766  255 255 255
-55.0039 -15.2562 -11.4599  255 255 255
-17.3532 -14.855 28.2946  255 255 255
-17.3387 -14.8697 28.2535  255 255 255
66.5554 -16.485 18.679  255 255 255
-6.80571 -15.2606 35.2673  255 255 255
55.4016 -17.4904 -9.41662  255 255 255
-20.2405 -15.367 27.24  255 255 255
7.217 -15.8322 34.2248  255 255 255
59.9823 -17.6551 1.99979  255 255 255
-3.25486 -15.6427 36.0844  255 255 255
60.5647 -17.732 3.30214  255 255 255
59.6751 -17.8821 1.60299  255 255 255
58.2466 -18.0598 -2.29162  255 255 255
58.2184 -18.0601 -2.23534  255 255 255
61.2284 -17.9315 4.4748  255 255 255
67.062 -17.6541 19.1932  255 255 255
66.5863 -17.7436 18.47  255 255 255
66.8515 -17.8473 18.635  255 255 255
66.7605 -17.8378 18.776  255 255 255
57.4532 -18.7613 -4.09172  255 255 255
-18.3188 -16.354 28.4661  255 255 255
63.5211 -18.331 9.8919  255 255 255
63.5061 -18.3331 9.89709  255 255 255
-40.8735 -17.5121 -9.64596  255 255 255
-40.8679 -17.5189 -9.65282  255 255 255
-6.72592 -16.3457 35.3988  255 255 255
26.3279 -17.5162 20.6022  255 255 255
59.3822 -19.1185 -0.0894815  255 255 255
-65.7206 -17.6812 -9.27649  255 255 255
-57.2345 -17.7624 -8.81429  255 255 255
66.3214 -18.6553 16.8003  255 255 255
-1.33271 -16.8235 36.1469  255 255 255
58.3017 -19.6589 -3.40726  255 255 255
61.2696 -19.4285 3.64919  255 255 255
63.176 -19.2589 8.02226  255 255 255
-12.2794 -17.0373 32.7973  255 255 255
-64.3181 -18.2354 -7.7432  255 255 255
-27.7926 -17.2569 25.2083  255 255 255
-15.8408 -17.1675 29.9167  255 255 255
-53.1776 -19.1489 -7.11146  255 255 255
67.7315 -19.6778 19.0255  255 255 255
60.3903 -20.613 0.788905  255 255 255
-26.8771 -17.9411 25.8887  255 255 255
-63.5724 -19.1913 -6.57557  255 255 255
-52.7824 -19.7372 -6.46873  255 255 255
-60.2541 -19.6322 -6.5523  255 255 255
-11.8792 -18.1822 33.0786  255 255 255
-15.2462 -18.3003 30.5467  255 255 255
58.785 -21.4221 -3.38432  255 255 255
60.1371 -21.2507 -0.304978  255 255 255
-84.4371 -19.5825 -4.66829  255 255 255
-57.4114 -20.0804 -5.85122  255 255 255
-25.1901 -18.6192 26.6835  255 255 255
-20.1077 -18.5661 29.3674  255 255 255
63.2465 -21.2217 7.01375  255 255 255
63.2052 -21.2014 7.04458  255 255 255
12.1325 -18.9529 31.36  255 255 255
64.6105 -21.1467 10.8189  255 255 255
-10.3 -18.7546 33.7249  255 255 255
65.2589 -21.3239 13.3696  255 255 255
-57.7091 -20.648 -5.34801  255 255 255
-3.98997 -18.909 35.8702  255 255 255
67.9306 -21.2531 18.5973  255 255 255
-53.9365 -20.8396 -5.54576  255 255 255
-53.9365 -20.8396 -5.54576  255 255 255
20.7614 -20.0853 24.4146  255 255 255
59.5792 -22.3936 -2.60425  255 255 255
64.7277 -22.0203 5.97989  255 255 255
12.0148 -19.6534 30.5569  255 255 255
63.6775 -21.9802 7.25003  255 255 255
-58.6679 -21.0215 -5.38993  255 255 255
67.5276 -21.5224 17.3761  255 255 255
-3.58685 -19.1964 35.8872  255 255 255
59.5614 -22.8553 -2.49353  255 255 255
67.1723 -22.3048 16.2129  255 255 255
-28.6753 -20.4587 21.3595  255 255 255
15.5976 -20.6219 29.6511  255 255 255
68.3512 -22.3926 18.7692  255 255 255
-10.2116 -20.4996 33.4614  255 255 255
-56.7227 -22.8049 -3.10717  255 255 255
59.1306 -24.7778 -4.4205  255 255 255
60.3148 -24.6483 -1.93601  255 255 255
-47.6883 -23.1934 -3.32203  255 255 255
60.8226 -24.7467 -1.02747  255 255 255
-3.33959 -20.8292 35.3819  255 255 255
1.24786 -20.9472 35.3315  255 255 255
6.14608 -21.2897 33.882  255 255 255
-56.7688 -23.3537 -2.44983  255 255 255
-61.7851 -23.5761 -2.17504  255 255 255
-62.4201 -23.6493 -2.20205  255 255 255
63.682 -24.8986 7.2841  255 255 255
-1.09577 -21.4975 35.3557  255 255 255
-53.5656 -23.9364 -1.30973  255 255 255
-7.22807 -21.5582 34.5099  255 255 255
22.3917 -22.8366 26.9654  255 255 255
60.4253 -26.0191 -2.64698  255 255 255
-58.3576 -24.2929 -1.12954  255 255 255
7.26236 -22.098 33.3754  255 255 255
62.76 -25.8331 2.27168  255 255 255
22.1354 -23.1209 27.4789  255 255 255
13.0342 -22.5414 32.1778  255 255 255
13.8357 -22.59 32.0644  255 255 255
-1.09568 -22.3568 35.0656  255 255 255
11.052 -22.7782 32.6807  255 255 255
22.1082 -23.4447 27.6156  255 255 255
7.37024 -22.9227 33.5289  255 255 255
65.109 -26.6148 7.34704  255 255 255
-14.073 -22.6881 34.1277  255 255 255
-13.1107 -23.109 34.7014  255 255 255
-3.79086 -23.6102 35.23  255 255 255
-43.4389 -26.7875 0.697996  255 255 255
-20.8609 -23.925 32.1073  255 255 255
-23.9144 -24.1192 32.3863  255 255 255
7.51966 -24.5493 34.8613  255 255 255
60.9576 -29.8228 -3.88834  255 255 255
7.95294 -24.9328 35.3393  255 255 255
69.677 -28.4688 16.614  255 255 255
-3.21604 -24.9887 36.8334  255 255 255
-3.52848 -25.1729 36.9621  255 255 255
67.4414 -29.6073 11.6832  255 255 255
-20.2115 -25.3838 33.6003  255 255 255
0.375755 -25.449 36.6602  255 255 255
64.647 -30.6026 4.45437  255 255 255
62.7711 -31.3849 -0.519138  255 255 255
-17.1168 -25.7586 34.0915  255 255 255
-23.2295 -26.2734 29.7271  255 255 255
19.1043 -26.9241 31.3523  255 255 255
66.4089 -30.7921 8.22579  255 255 255
-9.01045 -26.0583 35.4028  255 255 255
-13.1343 -26.1099 34.4057  255 255 255
63.2028 -31.7945 1.87617  255 255 255
69.1075 -30.0129 17.3238  255 255 255
69.1075 -30.0129 17.3238  255 255 255
67.715 -31.179 13.0346  255 255 255
64.848 -32.213 6.0189  255 255 255
66.8029 -31.9957 8.93976  255 255 255
66.8029 -31.9957 8.93976  255 255 255
-16.9784 -27.0227 35.5831  255 255 255
64.6455 -33.1017 2.38143  255 255 255
66.0865 -32.6199 6.30313  255 255 255
-9.51392 -27.2349 34.9861  255 255 255
64.7027 -33.0834 2.93823  255 255 255
-4.27957 -27.3905 36.3096  255 255 255
4.38455 -27.626 35.566  255 255 255
65.1198 -33.5192 2.59132  255 255 255
64.944 -33.509 2.76244  255 255 255
65.2167 -33.5383 2.53159  255 255 255
-7.41328 -27.6854 35.9424  255 255 255
68.3086 -32.6046 13.3764  255 255 255
-19.4994 -28.2575 31.9542  255 255 255
4.62769 -28.1648 35.3606  255 255 255
-55.264 -31.6027 6.70406  255 255 255
14.2109 -28.7326 34.5659  255 255 255
68.8647 -33.0926 12.5965  255 255 255
14.2487 -28.9688 34.857  255 255 255
14.2563 -28.9715 34.8025  255 255 255
-18.666 -28.8494 32.4059  255 255 255
66.2171 -34.2994 8.09614  255 255 255
-19.3714 -29.1645 31.4582  255 255 255
-15.9136 -28.6391 35.6647  255 255 255
13.1246 -29.2695 35.1659  255 255 255
16.38 -29.5966 35.1712  255 255 255
-10.2822 -28.9051 37.0652  255 255 255
13.5527 -29.7101 34.8949  255 255 255
65.8847 -35.5492 6.41576  255 255 255
65.894 -35.7898 4.18535  255 255 255
65.9229 -35.8078 4.22759  255 255 255
-6.99206 -29.2131 37.0743  255 255 255
66.7836 -35.9946 5.91058  255 255 255
69.9107 -35.1311 12.9569  255 255 255
-2.99608 -29.7098 37.4065  255 255 255
8.35711 -30.0309 36.6929  255 255 255
-3.68022 -29.7073 37.4196  255 255 255
7.69377 -30.1134 36.8374  255 255 255
70.266 -35.5562 13.5248  255 255 255
8.99873 -30.3844 37.0024  255 255 255
-10.1594 -29.9399 38.0629  255 255 255
-12.1559 -30.3631 36.5992  255 255 255
-5.57275 -30.2497 38.2182  255 255 255
-7.24614 -30.2017 38.3968  255 255 255
-2.50817 -30.3545 38.133  255 255 255
-2.52236 -30.3606 38.0867  255 255 255
-6.64911 -30.917 38.9174  255 255 255
-53.5869 -35.4747 11.1233  255 255 255
1.06031 -31.5116 38.6458  255 255 255
-1.79073 -31.5273 38.8203  255 255 255
1.54565 -31.9379 38.2627  255 255 255
4.09902 -32.3101 37.5839  255 255 255
-13.1393 -32.6656 34.2074  255 255 255
-11.2567 -32.7021 34.9932  255 255 255
0.586808 -32.6132 37.6329  255 255 255
69.7064 -39.3445 10.489  255 255 255
-1.43028 -32.5418 38.1722  255 255 255
-20.6109 -34.5041 26.9653  255 255 255
-23.8948 -35.3417 22.9846  255 255 255
-11.7677 -33.3567 34.0442  255 255 255
60.0306 -41.1901 10.4523  255 255 255
-10.8586 -37.1074 31.4269  255 255 255
-41.9677 -40.7356 16.2155  255 255 255
46.0928 -43.404 12.4866  255 255 255
15.479 -39.8233 25.5578  255 255 255
15.3642 -39.7317 25.8712  255 255 255
9.66685 -39.5385 28.9983  255 255 255
9.40808 -39.9533 28.8362  255 255 255
63.5921 -44.7919 15.0913  255 255 255
36.5914 -45.0337 15.3204  255 255 255
35.0867 -45.2472 17.4064  255 255 255
1.12358 -41.0922 31.083  255 255 255
1.61032 -41.5966 30.0697  255 255 255
2.97659 -42.2144 29.1671  255 255 255
17.732 -43.8805 26.1998  255 255 255
3.27439 -42.9746 28.5627  255 255 255
56.137 -47.4566 18.2066  255 255 255
-5.42811 -42.8681 31.0199  255 255 255
53.3467 -48.3962 19.2494  255 255 255
67.1986 -49.0817 20.199  255 255 255
52.8185 -48.8579 19.9127  255 255 255
52.8275 -48.9015 19.9417  255 255 255
31.3675 -48.5666 19.8947  255 255 255
58.4334 -49.4365 20.911  255 255 255
60.0902 -49.5135 21.0421  255 255 255
54.1363 -49.5458 20.7534  255 255 255
49.8976 -49.46 21.2277  255 255 255
-47.7369 -47.723 23.8384  255 255 255
56.4712 -50.3706 21.9836  255 255 255
-47.2204 -47.8792 24.8554  255 255 255
51.7085 -50.4527 22.0358  255 255 255
14.4401 -48.8632 25.0611  255 255 255
-13.6913 -47.637 28.1241  255 255 255
51.1301 -51.0034 22.6927  255 255 255
30.6974 -51.0279 22.7437  255 255 255
-11.2663 -48.7805 27.7858  255 255 255
49.0183 -51.716 23.5943  255 255 255
-1.22759 -48.9472 29.8138  255 255 255
0.504112 -50.0602 28.815  255 255 255
-29.9434 -50.6636 27.1617  255 255 255
42.9967 -52.7523 25.3617  255 255 255
41.8475 -53.2504 24.5613  255 255 255
62.066 -53.5802 25.6508  255 255 255
42.6945 -53.5537 24.7344  255 255 255
54.6578 -53.5643 25.7625  255 255 255
23.5071 -53.3227 25.8305  255 255 255
23.4785 -53.2926 25.8853  255 255 255
-29.0578 -52.1537 28.7119  255 255 255
-36.2484 -52.1531 28.9221  255 255 255
-29.7014 -52.4774 29.0283  255 255 255
-24.5396 -53.2036 29.5392  255 255 255
-22.833 -53.4651 30.0711  255 255 255
34.8247 -56.2561 28.4894  255 255 255
48.3557 -56.5051 29.0726  255 255 255
55.8469 -56.707 29.2534  255 255 255
47.6685 -56.949 28.6081  255 255 255
30.4355 -56.3865 29.1513  255 255 255
60.1973 -57.0744 30.0627  255 255 255
-21.97 -54.836 31.2687  255 255 255
50.1012 -57.1436 30.2295  255 255 255
50.1012 -57.1436 30.2295  255 255 255
-32.5242 -54.9338 32.0905  255 255 255
-17.4294 -55.3897 31.726  255 255 255
-26.2315 -55.8623 32.6866  255 255 255
32.0104 -58.1797 30.5046  255 255 255
51.1971 -58.4788 31.8111  255 255 255
-39.0165 -56.4781 33.4076  255 255 255
-21.2077 -56.586 33.0057  255 255 255
-38.5333 -56.445 33.8926  255 255 255
-35.0796 -56.5363 33.7491  255 255 255
-19.0443 -56.8602 32.9823  255 255 255
20.7004 -58.0856 31.8597  255 255 255
-22.3005 -57.2737 33.7867  255 255 255
-8.79119 -57.8037 33.5659  255 255 255
49.1372 -59.5265 33.1633  255 255 255
-8.49887 -57.9511 33.4965  255 255 255
35.9901 -59.7122 33.1554  255 255 255
-6.5585 -58.0535 33.8441  255 255 255
-1.42026 -58.1812 34.3671  255 255 255
-15.242 -58.0574 34.3854  255 255 255
-0.0193192 -58.5295 33.6902  255 255 255
4.56556 -58.6303 34.0009  255 255 255
40.1329 -59.8676 33.7547  255 255 255
-8.57567 -58.1926 34.978  255 255 255
-1.91582 -58.6111 34.3487  255 255 255
-13.8586 -58.1906 35.2989  255 255 255
-13.8665 -58.4161 34.7285  255 255 255
7.08036 -59.1504 33.8906  255 255 255
7.0924 -59.1703 33.8157  255 255 255
46.3587 -60.1866 34.2797  255 255 255
3.53411 -59.1109 34.0246  255 255 255
-6.02891 -58.8371 34.7076  255 255 255
2.36956 -59.0138 34.8382  255 255 255
1.51948 -59.3643 34.1772  255 255 255
-9.38274 -58.9862 34.9397  255 255 255
49.8765 -60.8251 34.7369  255 255 255
-16.6759 -58.7912 35.9503  255 255 255
-16.6759 -58.7912 35.9503  255 255 255
29.8433 -60.3295 34.7441  255 255 255
41.1504 -60.9622 35.0704  255 255 255
31.1056 -60.8326 35.4458  255 255 255
48.604 -61.3574 35.4609  255 255 255
48.604 -61.3574 35.4609  255 255 255
-17.2175 -59.6923 36.3531  255 255 255
-17.2186 -59.7069 36.3191  255 255 255
-15.8712 -59.7195 36.3494  255 255 255
-15.8589 -59.5194 36.8233  255 255 255
43.4863 -61.8758 34.9184  255 255 255
22.7404 -60.9339 35.8226  255 255 255
47.5201 -61.6588 35.814  255 255 255
-5.20718 -60.1282 36.2656  255 255 255
-15.9757 -59.9194 36.6044  255 255 255
48.5526 79.883 -86.5747  255 255 255
-75.6406 54.2554 -13.7144  255 255 255
1.26951 69.3775 -59.8638  255 255 255
1.32093 69.4729 -60.0898  255 255 255
57.8095 81.3845 -91.9668  255 255 255
0.000272543 69.0053 -59.1989  255 255 255
-65.5225 55.7487 -19.6268  255 255 255
33.2473 75.864 -79.5373  255 255 255
-3.31488 67.9302 -57.627  255 255 255
-152.965 91.498 -106.474  255 255 255
-10.0667 65.8876 -54.8393  255 255 255
51.9493 49.3317 -12.05  255 255 255
50.9319 78.475 -90.0068  255 255 255
-53.0798 57.4288 -29.6503  255 255 255
67.6336 81.6591 -99.0475  255 255 255
12.3972 69.7053 -68.2097  255 255 255
63.5215 80.3884 -97.2549  255 255 255
52.1337 48.7999 -12.9591  255 255 255
-15.901 63.8138 -51.9982  255 255 255
-15.9143 63.7457 -52.0336  255 255 255
-17.0804 63.3067 -51.0146  255 255 255
59.4019 78.9728 -95.5204  255 255 255
67.4984 80.5124 -99.7598  255 255 255
-55.9015 55.8937 -27.981  255 255 255
53.3339 47.3627 -11.397  255 255 255
58.3701 77.7312 -95.8699  255 255 255
27.0766 71.1707 -78.3302  255 255 255
57.2145 77.4035 -95.457  255 255 255
54.3788 46.2268 -8.98336  255 255 255
55.8463 76.832 -94.7252  255 255 255
-65.8014 52.1696 -20.2411  255 255 255
-1.70476 64.9757 -61.341  255 255 255
54.8355 45.4914 -8.11914  255 255 255
22.0421 69.7704 -75.6132  255 255 255
48.7933 49.6294 -20.0573  255 255 255
49.2706 37.252 14.107  255 255 255
27.5822 70.2132 -79.5098  255 255 255
55.7567 75.7437 -95.505  255 255 255
-88.5472 51.0709 -17.6962  255 255 255
49.4617 36.486 14.1916  255 255 255
-4.38565 63.0153 -61.0333  255 255 255
50.999 35.4245 15.4876  255 255 255
-52.7413 53.7525 -32.3173  255 255 255
-36.398 55.941 -41.1374  255 255 255
-36.3637 56.4607 -42.4703  255 255 255
-26.1073 58.2138 -48.5509  255 255 255
-27.3122 57.8652 -48.2791  255 255 255
63.8262 75.2867 -103.928  255 255 255
-66.3207 50.4096 -24.2063  255 255 255
53.4005 32.1142 20.3424  255 255 255
52.5562 43.9651 -14.6882  255 255 255
12.8765 63.8945 -74.016  255 255 255
-14.6975 58.3868 -57.417  255 255 255
-116.301 63.0144 -59.9676  255 255 255
-15.5401 57.7464 -57.639  255 255 255
-15.5592 57.7481 -57.6062  255 255 255
-24.5024 55.7445 -52.2677  255 255 255
-14.9674 57.4536 -58.0416  255 255 255
-55.655 50.4181 -33.3597  255 255 255
54.3964 41.3038 -11.8101  255 255 255
62.4657 74.3916 -114.719  255 255 255
-5.74901 58.4552 -64.5966  255 255 255
53.55 30.8042 19.299  255 255 255
-20.9518 55.4756 -55.4891  255 255 255
-2.53835 58.7293 -66.919  255 255 255
56.0457 28.7304 24.277  255 255 255
-5.36035 57.7226 -65.6575  255 255 255
55.2208 39.9085 -10.9055  255 255 255
-19.4729 55.0217 -56.8987  255 255 255
-19.4696 55.0332 -56.8938  255 255 255
51.111 31.5261 14.1482  255 255 255
56.3561 28.2938 24.2256  255 255 255
53.6599 29.9729 18.8339  255 255 255
20.1756 61.4919 -80.9186  255 255 255
32.7783 63.631 -88.4573  255 255 255
57.0687 27.6048 25.2795  255 255 255
-10.894 55.7581 -63.1682  255 255 255
-17.9309 54.4604 -59.0927  255 255 255
49.7557 66.4841 -99.2081  255 255 255
56.6947 27.8345 24.276  255 255 255
57.5038 26.62 27.9555  255 255 255
57.3345 26.8897 26.1893  255 255 255
57.6991 26.2895 28.2656  255 255 255
57.6991 26.2895 28.2656  255 255 255
55.7794 28.169 21.8581  255 255 255
57.9375 26.1977 26.7214  255 255 255
53.1588 39.5147 -17.1533  255 255 255
58.1075 25.9432 27.2086  255 255 255
-65.7656 45.2705 -29.7944  255 255 255
58.8314 24.9335 29.6829  255 255 255
42.4501 63.1708 -96.9653  255 255 255
56.2298 26.9612 22.2964  255 255 255
59.0655 24.4408 30.3323  255 255 255
56.6383 26.6007 23.2428  255 255 255
58.9749 24.9356 28.3793  255 255 255
49.9682 30.2544 10.712  255 255 255
59.2438 24.4471 29.4811  255 255 255
-79.0951 42.4493 -21.7305  255 255 255
57.2081 25.7129 23.5106  255 255 255
49.9819 39.7829 -24.5509  255 255 255
59.161 24.3431 27.729  255 255 255
49.1688 39.8547 -25.0935  255 255 255
49.2381 39.8862 -25.1886  255 255 255
49.1558 39.8448 -25.0796  255 255 255
-115.544 55.5681 -65.3812  255 255 255
60.4996 22.9612 31.1739  255 255 255
-11.2874 51.688 -67.2626  255 255 255
-52.0961 45.0736 -40.3106  255 255 255
60.484 22.8137 30.7382  255 255 255
60.7306 22.6383 31.5341  255 255 255
-53.3875 44.1184 -38.7106  255 255 255
51.1923 37.7182 -22.5378  255 255 255
60.2787 22.7458 29.5781  255 255 255
61.3484 21.744 32.0192  255 255 255
47.8197 39.0412 -29.4571  255 255 255
-11.841 49.9821 -66.6321  255 255 255
53.0532 26.2336 15.4946  255 255 255
-63.1544 42.0945 -34.5788  255 255 255
49.4301 37.5595 -26.1868  255 255 255
49.4159 37.5491 -26.1523  255 255 255
-27.5653 47.0187 -57.3991  255 255 255
-32.3945 46.4534 -55.2524  255 255 255
49.9875 37.0899 -25.9702  255 255 255
49.9738 27.6008 8.36032  255 255 255
49.7306 27.4857 8.75973  255 255 255
-41.2982 44.5773 -49.2916  255 255 255
47.0633 38.2936 -31.2031  255 255 255
51.6925 35.7477 -22.1361  255 255 255
49.905 27.0509 8.9014  255 255 255
-43.1653 44.0643 -48.5378  255 255 255
50.0834 27.1623 7.51823  255 255 255
18.9277 53.0987 -88.4982  255 255 255
50.3757 26.3659 9.42397  255 255 255
54.0192 24.488 16.2767  255 255 255
52.2898 25.1763 12.8321  255 255 255
3.14151 49.7062 -79.6689  255 255 255
-73.6516 38.3052 -30.857  255 255 255
-74.4337 37.8898 -30.0165  255 255 255
53.0663 23.9771 13.5003  255 255 255
-55.9587 40.4641 -43.9092  255 255 255
61.6861 19.3286 30.2601  255 255 255
-78.3229 35.6581 -25.1835  255 255 255
51.0593 32.67 -25.1313  255 255 255
-10.0298 44.947 -73.3273  255 255 255
-47.98 39.4444 -48.3468  255 255 255
51.496 32.0843 -24.6033  255 255 255
57.7332 20.4527 22.0235  255 255 255
58.6743 19.9501 23.7283  255 255 255
-81.8919 34.8508 -26.4877  255 255 255
-81.8989 34.8639 -26.5121  255 255 255
52.8172 22.4575 12.0906  255 255 255
-7.95479 44.383 -75.5832  255 255 255
57.4673 47.385 -89.383  255 255 255
-22.6144 39.8687 -57.6718  255 255 255
-11.4351 43.4344 -73.7719  255 255 255
52.5267 30.5316 -22.9344  255 255 255
-79.1537 34.4854 -28.6908  255 255 255
-79.157 34.4646 -28.5681  255 255 255
-129.423 49.0033 -80.4235  255 255 255
-8.34995 43.7463 -76.4412  255 255 255
-41.3527 39.0067 -54.033  255 255 255
53.053 29.9296 -22.2107  255 255 255
52.4359 21.9828 10.7853  255 255 255
47.7215 32.7345 -34.1652  255 255 255
49.4714 23.1589 5.28771  255 255 255
49.429 23.1421 5.34019  255 255 255
51.7105 30.3131 -26.4884  255 255 255
-10.3025 42.5904 -75.3465  255 255 255
53.5589 29.1788 -21.476  255 255 255
-8.33384 42.466 -76.8604  255 255 255
-12.9138 41.7523 -74.2555  255 255 255
53.4897 20.7122 12.7864  255 255 255
55.5266 19.656 16.4742  255 255 255
58.5425 18.1584 22.2355  255 255 255
58.5322 18.1335 22.2323  255 255 255
-12.4776 41.099 -74.9091  255 255 255
-42.5407 36.7243 -54.6888  255 255 255
-41.1835 36.8648 -55.7501  255 255 255
-41.1192 36.7409 -55.301  255 255 255
-125.366 43.8999 -74.9449  255 255 255
-64.8972 33.6539 -40.4232  255 255 255
-36.2759 37.0698 -60.5392  255 255 255
-36.2957 37.0607 -60.5189  255 255 255
-58.9303 33.9726 -44.4667  255 255 255
-42.4827 35.5919 -55.9101  255 255 255
-69.52 31.2823 -36.3329  255 255 255
48.3903 21.0265 1.16074  255 255 255
-65.7464 32.3485 -41.2986  255 255 255
-30.6579 35.6068 -65.5174  255 255 255
-53.9551 32.8684 -49.895  255 255 255
60.0458 15.2701 23.9792  255 255 255
-82.6252 29.6151 -30.3517  255 255 255
-83.5541 29.461 -30.566  255 255 255
50.2235 19.2139 4.52894  255 255 255
50.2211 19.213 4.53334  255 255 255
49.8911 19.2981 4.02623  255 255 255
60.6545 14.627 25.0081  255 255 255
-69.861 30.585 -40.3273  255 255 255
-2.08549 35.4138 -73.0088  255 255 255
